# .PCD v0.7 - Point Cloud Data file format
VERSION 0.7
FIELDS x y z rgb
SIZE 4 4 4 4
TYPE F F F U
COUNT 1 1 1 1
WIDTH 1111
HEIGHT 1
VIEWPOINT 0 0 0 1 0 0 0
POINTS 1111
DATA ascii
-2.2688925 -1.3421106 2.7435043 4291288827
-2.259841 -1.3454303 2.7495947 4290433008
-2.2493525 -1.3477223 2.7539511 4282472543
-2.2408626 -1.3511083 2.7601774 4284445557
-2.2304997 -1.3538843 2.7653451 4288523457
-2.2215292 -1.3572212 2.771486 4288457667
-2.211292 -1.3600643 2.7767773 4284313977
-2.201401 -1.3629837 2.7822096 4282405972
-2.1894326 -1.3649498 2.7860053 4287010211
-2.1804109 -1.368342 2.7922549 4287733938
-2.169939 -1.37126 2.7976789 4282472282
-2.162138 -1.3748732 2.8043444 4289445837
-2.1514406 -1.3780862 2.8102586 4291222521
-2.1330025 -1.3773638 2.8094075 4282999412
-2.1188014 -1.3790793 2.8127294 4280299321
-2.1094158 -1.3824394 2.8189387 4280167478
-2.0998955 -1.3857965 2.8251441 4280298293
-2.0904891 -1.3891472 2.8313477 4280101686
-2.0807514 -1.3924189 2.8374145 4280232504
-2.0711019 -1.395726 2.8435483 4280036148
-2.0614436 -1.3989952 2.8496239 4279839538
-2.0516665 -1.4023026 2.8557642 4279839282
-2.0420547 -1.4056382 2.8619626 4279904306
-2.0320683 -1.408865 2.8679717 4280101173
-2.0224671 -1.4122657 2.8742888 4279970613
-2.0127621 -1.4156091 2.8805125 4280036405
-1.9987015 -1.4112914 2.8738735 4279840310
-1.5349104 -1.2319525 2.5589304 4280826944
-1.4352552 -1.1965617 2.4969075 4280366135
-1.427503 -1.1999419 2.5030141 4282010711
-1.4160103 -1.2013938 2.5057721 4279905586
-1.4069666 -1.2041724 2.5108359 4285893274
-1.3979111 -1.2069656 2.5159285 4286089882
-1.3868947 -1.2086434 2.5190921 4285169547
-1.3779258 -1.2115264 2.5243459 4286090141
-1.3684618 -1.2140969 2.5290654 4283655538
-1.3572338 -1.2159214 2.5324702 4280299836
-1.3501534 -1.2201033 2.5399764 4280234300
-1.3384781 -1.2216457 2.542901 4280233532
-1.3293782 -1.2245719 2.5482447 4280167735
-1.3111846 -1.2223697 2.544656 4282603618
-1.3023438 -1.2254547 2.5502806 4285563541
-1.2931511 -1.228349 2.5555775 4285102471
-1.2837895 -1.2311599 2.5607333 4282734944
-1.2744533 -1.2340068 2.5659547 4284445565
-1.2649784 -1.2367878 2.5710654 4286089883
-1.2555556 -1.239627 2.5762801 4283854200
-1.2460659 -1.2424461 2.5814631 4285893786
-1.2364467 -1.2452024 2.5865405 4286024603
-1.2266853 -1.2478929 2.5915062 4280037688
-1.2173377 -1.2508761 2.5969844 4280234297
-1.2077889 -1.2537574 2.6022882 4280168502
-1.1980214 -1.2565221 2.6073921 4280168756
-1.1937834 -1.2603676 2.6146095 4280299316
-1.6843033 -1.5032805 3.0456975 4291551736
-1.6748112 -1.5075202 3.0535839 4289643992
-1.6611196 -1.5095253 3.0575376 4280432960
-1.6500603 -1.5130091 3.064095 4280103481
-1.6394969 -1.5168415 3.0712655 4280365628
-1.6285615 -1.5205288 3.0781808 4280299832
-1.6172519 -1.5240577 3.0848179 4280627769
-1.6062376 -1.5277843 3.0918064 4280429883
-1.5955813 -1.5317495 3.0992184 4280364086
-1.5850724 -1.5357646 3.1067283 4280364084
-1.574333 -1.5397367 3.1141608 4280430391
-1.5615823 -1.5425161 3.1194963 4290170333
-1.5505009 -1.5464344 3.1268318 4291354103
-1.531989 -1.545988 3.1264625 4281814870
-1.5209563 -1.5499085 3.1338122 4280036917
-1.5100998 -1.5539392 3.1413627 4280298545
-1.4990712 -1.5579076 3.1488056 4280100911
-1.4880463 -1.5618987 3.1562936 4280036403
-1.4767361 -1.5657593 3.1635532 4279904562
-1.4653273 -1.5695984 3.1707776 4280035890
-1.4539227 -1.5734825 3.1780837 4280297779
-1.442536 -1.5774176 3.1854827 4279904561
-1.4311501 -1.581377 3.192929 4279904819
-1.4197142 -1.5853449 3.2003932 4280035891
-1.4084283 -1.5894516 3.2081056 4279970611
-1.3972415 -1.5936514 3.2159872 4280101685
-1.3860153 -1.5978737 3.223911 4280364344
-1.3641614 -1.5949044 3.2191191 4291156720
-1.3531635 -1.599337 3.2274163 4291485427
-1.3403616 -1.6025454 3.2335532 4281945936
-1.3282427 -1.6062683 3.240602 4287209386
-1.3159144 -1.6098469 3.2474015 4287208360
-1.3039198 -1.6136916 3.2546751 4281484353
-1.292112 -1.6177332 3.2622979 4281417533
-1.2790477 -1.6209879 3.2685232 4290630111
-1.2672009 -1.6250895 3.276257 4291682044
-1.2544492 -1.6286745 3.2830691 4286944940
-1.2419834 -1.6324123 3.290163 4280234036
-1.2304534 -1.6368936 3.2985768 4279970607
-1.2185189 -1.6411248 3.3065503 4290959590
-1.2068143 -1.645575 3.3149149 4291551476
-1.1899238 -1.6464003 3.316828 4280827202
-1.1777996 -1.6505214 3.3246205 4280100654
-1.1659677 -1.654996 3.3330362 4279772720
-1.1540585 -1.6594536 3.3414257 4279706928
-1.1420972 -1.6639378 3.3498638 4279772465
-1.1299998 -1.6683527 3.3581834 4279641137
-1.1178926 -1.6728196 3.3665972 4279772207
-1.1057023 -1.6772583 3.3749652 4279837486
-1.0935395 -1.6818044 3.3835244 4279969068
-1.081328 -1.6863742 3.392128 4279969069
-1.0689999 -1.6908654 3.4005978 4279968815
-1.0567557 -1.6955272 3.4093702 4279837740
-1.0444536 -1.7001939 3.4181542 4279838769
-1.0321332 -1.7048962 3.4270055 4280167218
-1.0144789 -1.7052802 3.4281609 4285037702
-1.0028324 -1.7104601 3.4378824 4291814906
-0.99044538 -1.7152423 3.4468842 4291815420
-0.97784686 -1.7199382 3.4557319 4291815675
-0.96506709 -1.724553 3.4644365 4291881723
-0.95293415 -1.7296419 3.4740024 4292013566
-0.93989247 -1.7341827 3.4825776 4292342015
-0.9273656 -1.7391362 3.4919004 4292408063
-0.91466016 -1.7440326 3.5011215 4292473599
-0.89672661 -1.7438011 3.5012369 4290760405
-0.87792653 -1.742994 3.500304 4284967510
-0.86472869 -1.7476926 3.5091636 4285098324
-0.85236567 -1.7529032 3.5189679 4285295957
-0.83926272 -1.7576734 3.5279737 4285296215
-0.82583457 -1.7623211 3.5367529 4285033043
-0.81284505 -1.7672862 3.5461156 4284966480
-0.79917139 -1.7718894 3.5548153 4284899916
-0.78607291 -1.7768246 3.5641351 4284768331
-0.77137446 -1.7804109 3.5710344 4283848518
-0.78029823 -1.846194 3.685775 4278981649
-0.7645359 -1.8487446 3.6908824 4278981395
-0.75372285 -1.8562717 3.7048934 4279178258
-0.75495368 -1.8753204 3.7395904 4279112723
-0.73569012 -1.8744835 3.7386556 4279244309
-0.72374403 -1.8802381 3.7495956 4279179030
-0.71293724 -1.8869364 3.7622578 4279179030
-0.70500362 -1.896455 3.7800009 4279179029
-0.69826263 -1.9070529 3.7997134 4279376151
-0.68913984 -1.9134724 3.812103 4279376407
-0.6798203 -1.920452 3.8254473 4279310357
-0.67521042 -1.9316682 3.8464744 4279376150
-0.66709197 -1.9384921 3.8597002 4279310615
-0.6552071 -1.9402481 3.8639319 4279441944
-0.65262532 -1.9530208 3.8878748 4279376152
-0.6465143 -1.9621224 3.9052391 4279376407
-0.64367187 -1.9755622 3.9303591 4279441431
-0.6379829 -1.9841191 3.9468801 4279310871
-0.63415927 -1.9967875 3.9706469 4279310357
-0.62573242 -2.0015359 3.9804277 4279441431
-0.62822467 -2.0217206 4.0177417 4279441174
-0.62906754 -2.0386384 4.0493393 4279440917
-0.62352443 -2.0491467 4.0693626 4279441174
-0.61614799 -2.0579743 4.08635 4279244312
-0.61578536 -2.0777004 4.1227708 4279178774
-0.61299217 -2.096504 4.1574187 4279047958
-0.60877389 -2.1116173 4.1856208 4279244309
-0.60392606 -2.1311879 4.2214727 4279112980
-0.59672219 -2.14645 4.2497163 4279178517
-0.58810121 -2.1620312 4.2784038 4279113237
-0.58076763 -2.1827459 4.316103 4284239211
-0.57062364 -2.2006931 4.3487916 4284238953
-0.5600903 -2.2192369 4.3825054 4284435822
-0.54705971 -2.2370648 4.4147673 4284238952
-0.53224868 -2.2564652 4.4495931 4284304487
-0.51543581 -2.269165 4.4726739 4284172910
-0.49637637 -2.2805779 4.4933186 4284632941
-0.47741514 -2.2928069 4.5153999 4284305001
-0.45958298 -2.308167 4.5430298 4284567662
-0.43890804 -2.3175149 4.5599842 4284305512
-0.41783157 -2.3255692 4.5746698 4284567659
-0.40009424 -2.3375971 4.596601 4284567659
-0.3822172 -2.348428 4.6164646 4284567404
-0.35479957 -2.4544163 4.8000116 4284831603
-0.33314475 -2.4561028 4.8037252 4287200406
-0.31294429 -2.4612331 4.8135672 4286806938
-0.29453298 -2.4701266 4.8301406 4286412430
-0.25970724 -2.4307213 4.761126 4289247142
-0.24346928 -2.4417202 4.7815828 4291089603
-0.24970707 -2.4879966 4.8658762 4290826693
-0.24194273 -2.5145507 4.9144158 4291747027
-0.22468273 -2.5261323 4.9358997 4291944149
-0.2061464 -2.5346859 4.9519935 4292339162
-0.18462144 -2.5390396 4.9604497 4292339676
-0.15931638 -2.5354452 4.9546347 4292536289
-0.13053282 -2.5241742 4.9350295 4292798693
-0.089216821 -2.4852319 4.8656983 4292798953
-0.056047119 -2.4628723 4.8261471 4292930278
-0.039086763 -2.4768105 4.8517818 4293128174
-0.016629241 -2.4786832 4.8557315 4292930026
0.00073417014 -2.4925542 4.8812432 4292864233
-2.8436358 -1.4005082 2.8579993 4292207592
-2.84673 -1.4086672 2.8724568 4292273641
-2.8523545 -1.4178854 2.8887429 4291946210
-2.8318267 -1.4166113 2.8870492 4292470247
-2.8169715 -1.4175866 2.8892126 4292404711
-2.8207691 -1.4261236 2.9043584 4292010725
-2.8131289 -1.4300673 2.9116271 4292338407
-2.8133767 -1.4372855 2.9245267 4291813084
-2.8300371 -1.4512914 2.9491074 4288721065
-2.6426477 -1.3779682 2.8236604 4290693065
-2.6399295 -1.3832512 2.8332317 4290692807
-2.6656129 -1.4011575 2.8645029 4289967269
-2.5821197 -1.3712208 2.8135223 4289508507
-2.5880101 -1.3809097 2.8306491 4289245335
-2.3970532 -1.3060824 2.7021677 4288918211
-2.3624148 -1.2981262 2.688834 4291024113
-2.3536849 -1.3012049 2.694524 4291025145
-2.3447368 -1.3043857 2.7003825 4291090425
-2.3357894 -1.3075697 2.7062519 4291156731
-2.3268874 -1.3106514 2.7119572 4291026427
-2.3178179 -1.3138231 2.7178121 4291156987
-2.3088818 -1.3169107 2.7235363 4291091450
-2.2998707 -1.3200841 2.7294056 4291157244
-2.2908175 -1.3232708 2.7353013 4290960891
-2.2816746 -1.3265105 2.7412875 4291157500
-2.2725396 -1.3297564 2.7472889 4291091705
-2.263561 -1.3330091 2.7533119 4290565621
-2.252707 -1.335026 2.7572241 4282538596
-2.2426283 -1.3379736 2.7627137 4286420641
-2.2337027 -1.3412962 2.7688692 4288459210
-2.2247543 -1.3446313 2.7750497 4288590797
-2.2135594 -1.3469377 2.779449 4286288285
-2.203872 -1.3500236 2.7851999 4286944935
-2.192812 -1.3525506 2.7899785 4291024627
-2.1830256 -1.3554976 2.7955036 4289709029
-2.1730771 -1.3585778 2.80125 4281419854
-2.1659789 -1.3622429 2.8080745 4288064441
-2.1545649 -1.3653455 2.8138177 4291551225
-2.1382396 -1.3655151 2.8144996 4283656824
-2.1223335 -1.3664242 2.8164277 4280036921
-2.1127992 -1.3697675 2.8226464 4280298296
-2.1034522 -1.3731213 2.8288946 4280036407
-2.0940187 -1.3764561 2.8351135 4279971127
-2.0842345 -1.3797189 2.8412046 4280036408
-2.0745976 -1.3830246 2.8473778 4279970615
-2.0647361 -1.3862507 2.8534153 4280036150
-2.0549588 -1.3895581 2.8595967 4280167222
-2.0454054 -1.3928641 2.8657899 4280036406
-2.0353985 -1.3960896 2.8718359 4279839540
-2.02582 -1.3994619 2.87815 4279970359
-2.0159073 -1.402694 2.8842218 4280298552
-2.0030828 -1.4001408 2.8805089 4280234040
-1.5491853 -1.2254879 2.5705454 4285827224
-1.4382561 -1.1859685 2.5004725 4279970858
-1.4337815 -1.1908671 2.5093062 4286221209
-1.4186245 -1.1906592 2.5091364 4280037178
-1.4095746 -1.1934317 2.5142229 4285563794
-1.4003063 -1.1959802 2.5189314 4286090138
-1.3906307 -1.1984107 2.523428 4285367699
-1.3807073 -1.200784 2.5278203 4286090655
-1.3713058 -1.2033938 2.5326381 4283590256
-1.3622411 -1.2063711 2.5380886 4280300095
-1.3524578 -1.2090831 2.5430653 4280233788
-1.3396764 -1.2100345 2.5449593 4280299582
-1.3309759 -1.2132014 2.5507591 4280364862
-1.312047 -1.2105687 2.5463612 4280365372
-1.3033451 -1.2137265 2.5521512 4283853428
-1.2941761 -1.2166268 2.5574932 4284512389
-1.2847623 -1.2193975 2.5626111 4280828494
-1.2754691 -1.2222618 2.5678971 4284051835
-1.2659858 -1.2250317 2.5730207 4286155419
-1.2564745 -1.2278082 2.5781586 4284248955
-1.2470356 -1.2306514 2.5834172 4286090653
-1.2375065 -1.2334604 2.588619 4286024089
-1.2276905 -1.2361104 2.5935442 4279971897
-1.2181872 -1.2389854 2.5988681 4281616463
-1.2087175 -1.2419101 2.6042824 4280431932
-1.1992481 -1.2448624 2.6097481 4280036661
-1.1857564 -1.2444035 2.6092868 4282667868
-1.6873635 -1.4902533 3.0502565 4291485430
-1.6776481 -1.4944013 3.0580349 4290564586
-1.6647254 -1.4967694 3.0626576 4280433214
-1.6546341 -1.5007408 3.0701313 4288392372
-1.6424711 -1.5036638 3.0757365 4282471517
-1.6320571 -1.5076808 3.0832822 4284379510
-1.6205769 -1.5111717 3.089891 4285957261
-1.6090515 -1.5145094 3.0962448 4280365878
-1.5983887 -1.5184733 3.1037061 4280233269
-1.5878934 -1.5224771 3.1112509 4280233270
-1.5770471 -1.5263963 3.1186402 4280168249
-1.5638261 -1.5290524 3.1237726 4289971930
-1.5525358 -1.5328996 3.1310267 4291747833
-1.5345551 -1.5326073 3.1309221 4281945945
-1.52354 -1.5365248 3.1383183 4280036408
-1.5126835 -1.5405449 3.1459041 4280101684
-1.5016892 -1.5445216 3.153415 4279970867
-1.4905907 -1.5484787 3.1608934 4280101173
-1.479355 -1.5523639 3.1682487 4280101174
-1.467942 -1.5562021 3.1755209 4280035633
-1.4564923 -1.5600569 3.1828251 4279904045
-1.4450568 -1.5639479 3.1901977 4279969585
-1.4336696 -1.5679007 3.1976843 4280166192
-1.4220853 -1.5717907 3.2050593 4280034864
-1.4108574 -1.575918 3.2128642 4280035636
-1.3996141 -1.5800825 3.2207384 4279969840
-1.388297 -1.5842458 3.2286124 4280036659
-1.3669099 -1.5816332 3.2243853 4291090412
-1.3558316 -1.5860012 3.2326281 4291419378
-1.3434949 -1.5895678 3.2394402 4282274648
-1.3313174 -1.5932084 3.2463939 4279972400
-1.3183899 -1.5964472 3.2526236 4284051567
-1.3052356 -1.5994792 3.2584929 4291155685
-1.2938575 -1.6038321 3.2667241 4291681015
-1.2814641 -1.607474 3.2736893 4291615992
-1.2694055 -1.6115425 3.2814064 4286024861
-1.2573855 -1.6155741 3.2890708 4280103734
-1.2442254 -1.6187762 3.2952561 4280430898
-1.2327418 -1.6233034 3.3038113 4280168495
-1.2207147 -1.6274539 3.311697 4291090663
-1.2089967 -1.6318924 3.3201005 4291156462
-1.1915426 -1.6321913 3.3210759 4281287238
-1.1798441 -1.6367338 3.3296683 4280166192
-1.1679668 -1.641162 3.3380618 4279837743
-1.1560948 -1.6456634 3.3465877 4279772207
-1.1440907 -1.6501031 3.3550069 4279641131
-1.1319684 -1.654498 3.3633492 4279903275
-1.1198211 -1.6589252 3.3717523 4279837741
-1.1076534 -1.6633927 3.3802302 4279837741
-1.0954474 -1.6678934 3.3887699 4279771950
-1.0832043 -1.6724294 3.3973744 4279838255
-1.0708926 -1.6769459 3.4059484 4279706925
-1.0586108 -1.6815584 3.4146965 4279772712
-1.046242 -1.6861523 3.4234142 4279904810
-1.0339497 -1.6909083 3.4324224 4280101424
-1.0163743 -1.6914037 3.433763 4285103755
-1.0052285 -1.6968999 3.4441352 4291813882
-0.99297982 -1.701772 3.453366 4291880443
-0.98017651 -1.7063386 3.4620409 4292012284
-0.96844721 -1.71164 3.4720635 4291947005
-0.95512861 -1.7159586 3.4802899 4292013054
-0.94258964 -1.7208407 3.4895496 4292342271
-0.92984021 -1.7256478 3.4986727 4292342271
-0.91701275 -1.7304642 3.5078139 4292801535
-0.89818883 -1.7295696 3.5067022 4290498002
-0.88055241 -1.7296077 3.5072806 4285098581
-0.86741841 -1.7343277 3.5162456 4285295702
-0.85431576 -1.7390964 3.5253048 4285230166
-0.84158355 -1.7441205 3.5348411 4285098324
-0.82837194 -1.7488992 3.5439255 4284965970
-0.8152833 -1.7538178 3.5532684 4284900172
-0.80160201 -1.7583892 3.5619745 4284768843
-0.78847611 -1.7633353 3.5713789 4284768589
-0.77269554 -1.7659122 3.5764966 4283781957
-0.79255533 -1.8415598 3.7101476 4278981391
-0.77786112 -1.845235 3.7173181 4279112721
-0.7679022 -1.8536375 3.7330329 4279112977
-0.76247817 -1.8663775 3.7566221 4279178514
-0.74565327 -1.868183 3.7604232 4279309588
-0.7346983 -1.8751887 3.7736967 4279375637
-0.73016262 -1.8883529 3.7981606 4279310359
-0.72111291 -1.8969635 3.8144069 4279179287
-0.711142 -1.9044731 3.8286929 4279375640
-0.69934368 -1.9086667 3.8371172 4279376152
-0.69544065 -1.9218007 3.861686 4279376153
-0.68861347 -1.9308841 3.8790319 4279507224
-0.68179995 -1.9401759 3.8967612 4279507224
-0.67118472 -1.9445347 3.9056456 4279310359
-0.66678864 -1.9554321 3.926414 4279376156
-0.65929925 -1.9628271 3.9408693 4279310877
-0.65506643 -1.9748584 3.9636636 4279375899
-0.64553565 -1.978255 3.9710565 4279245338
-0.64248538 -1.9923997 3.9976695 4279375896
-0.63747197 -2.0024383 4.0170236 4279375895
-0.63467705 -2.0149915 4.0409713 4279441430
-0.63666612 -2.0347946 4.0779724 4279244566
-0.62919116 -2.0416334 4.0916357 4279310102
-0.62596214 -2.0571365 4.1207552 4279309847
-0.62123847 -2.0703912 4.1458659 4279244053
-0.61787468 -2.0885589 4.1796708 4279179030
-0.61414725 -2.1063621 4.2128491 4279113750
-0.60827309 -2.1224611 4.2428946 4279178772
-0.60167629 -2.1396368 4.2747774 4279178769
-0.59434056 -2.1589172 4.3102822 4279309330
-0.58467948 -2.1743057 4.3388238 4279178514
-0.57413155 -2.1933987 4.3737531 4279047186
-0.5633058 -2.2117667 4.4074287 4279112724
-0.55011815 -2.2285666 4.4381657 4279178259
-0.53450185 -2.24527 4.4685111 4283713122
-0.5178405 -2.2606587 4.4964838 4283910244
-0.49931401 -2.2717268 4.5167532 4284303465
-0.4802897 -2.2844386 4.5398512 4284107369
-0.46217588 -2.2977104 4.5640426 4284107878
-0.44266564 -2.3102837 4.586884 4284304999
-0.42187887 -2.3189096 4.6027145 4284239208
-0.40367532 -2.3295178 4.6223021 4284107623
-0.38649526 -2.3415337 4.6444793 4283910246
-0.35929507 -2.4433141 4.8223124 4286015360
-0.33818114 -2.4471226 4.8298106 4287660190
-0.31682554 -2.4505033 4.8365378 4286608275
-0.29933566 -2.4610419 4.8562307 4286609047
-0.26189175 -2.4176576 4.7793012 4289050279
-0.25043896 -2.4352164 4.8119702 4290760385
-0.2496094 -2.470773 4.8774452 4291089606
-0.2431418 -2.4993477 4.9301085 4291615441
-0.22472936 -2.5093238 4.9488182 4292142040
-0.20566249 -2.5166707 4.9628587 4292142041
-0.183488 -2.5198624 4.9692488 4292273630
-0.15489106 -2.5097175 4.9514532 4292667362
-0.11956555 -2.4846451 4.9065924 4290760382
-0.079209596 -2.4473174 4.8395143 4289905329
-0.048970584 -2.4312766 4.8110108 4290499557
-0.025995437 -2.4314344 4.8118572 4290695914
-0.01003149 -2.4477561 4.8420191 4290565350
0.010418598 -2.4543238 4.8544793 4291091954
-2.8929648 -1.4045827 2.8920226 4292207849
-2.8929272 -1.4115114 2.9044976 4292208104
-2.880898 -1.4137127 2.9087927 4292404458
-2.8661585 -1.4148145 2.911185 4292535790
-2.863811 -1.4208562 2.9221463 4292469995
-2.8677413 -1.4294343 2.9375186 4292338407
-2.8466189 -1.4279974 2.9355156 4292469226
-2.8470185 -1.4352626 2.9486232 4292338151
-2.8593805 -1.4474524 2.9702985 4290628551
-2.6757526 -1.3768018 2.8481255 4290758855
-2.6779175 -1.38394 2.8610246 4290693315
-2.6958437 -1.3984581 2.8867297 4289704357
-2.6230371 -1.3735868 2.8439956 4289311897
-2.6427076 -1.3890269 2.8713112 4289244821
-2.4130423 -1.2987382 2.7145185 4288391609
-2.366293 -1.2858657 2.6924503 4291091195
-2.3574562 -1.289031 2.6983216 4291091706
-2.3484349 -1.2922693 2.7043149 4291025658
-2.3395278 -1.2953182 2.7099988 4291025402
-2.3305759 -1.2983766 2.7157023 4290960378
-2.3215113 -1.3014964 2.7215106 4291091451
-2.3124034 -1.3046378 2.7273586 4291025915
-2.3033488 -1.3077856 2.7332242 4291025915
-2.2943025 -1.3109266 2.7390835 4291025914
-2.2851999 -1.3141212 2.7450361 4291223292
-2.2761343 -1.3173261 2.7510123 4291157499
-2.2672944 -1.3204919 2.7569356 4290894586
-2.2555845 -1.3221427 2.760226 4283198064
-2.2451487 -1.3247763 2.7652116 4281157707
-2.2356298 -1.3280364 2.7712846 4280893512
-2.2258828 -1.3311133 2.7770469 4280498496
-2.2168019 -1.3343035 2.7830269 4284313975
-2.2049503 -1.33666 2.7875156 4290695666
-2.1964397 -1.3399462 2.7936862 4290630385
-2.1863747 -1.3428792 2.7992144 4283262832
-2.1765182 -1.3458886 2.8048832 4280235580
-2.1674674 -1.3491986 2.8110909 4289445840
-2.1571124 -1.3524926 2.8172302 4291354360
-2.1420622 -1.3532202 2.8188834 4283854981
-2.1257596 -1.3537033 2.8200779 4280629315
-2.1162467 -1.3570352 2.8263209 4280167735
-2.1068971 -1.3603745 2.832588 4279905591
-2.0973704 -1.3636875 2.8388093 4280036916
-2.0876176 -1.3669453 2.8449342 4280233015
-2.0779879 -1.3702487 2.8511465 4280298808
-2.0681434 -1.3734746 2.8572249 4280036661
-2.0583107 -1.3767587 2.8634071 4279905334
-2.0487652 -1.3800523 2.8696222 4280101428
-2.0387847 -1.3832997 2.8757474 4279905332
-2.0290728 -1.3866689 2.8820941 4279971382
-2.0192876 -1.3899733 2.888334 4280299316
-2.0080462 -1.3913118 2.8912034 4280168239
-1.5604956 -1.2176473 2.5799384 4285564314
-1.4714524 -1.1878443 2.5265157 4280235055
-1.436048 -1.1798207 2.5122097 4286155673
-1.4250268 -1.1816999 2.5157292 4279906616
-1.4114097 -1.182166 2.5167494 4285300874
-1.4020016 -1.1846248 2.5213296 4286089882
-1.3928355 -1.1873641 2.526397 4285564052
-1.3830067 -1.1897389 2.5308235 4286155673
-1.3737248 -1.1923883 2.535744 4283919477
-1.3630915 -1.1945105 2.5397122 4282471521
-1.3535146 -1.1973319 2.544914 4284905605
-1.3413705 -1.1987101 2.5475585 4280300602
-1.332307 -1.2016329 2.552968 4280235065
-1.3137561 -1.1992637 2.5489719 4280103734
-1.3046904 -1.2021904 2.5543931 4280169271
-1.2951684 -1.2048688 2.5593767 4280234043
-1.2857898 -1.2076529 2.5645516 4280300345
-1.2763867 -1.2104414 2.5697374 4283919731
-1.2669896 -1.2132577 2.574976 4286089882
-1.2575574 -1.2160759 2.5802212 4284116858
-1.247965 -1.2188164 2.5853314 4286156444
-1.2384036 -1.2215984 2.5905187 4285958554
-1.228714 -1.2243226 2.5956063 4280103479
-1.2191541 -1.2271537 2.6008868 4284906108
-1.2096282 -1.2300347 2.6062591 4281945174
-1.2001758 -1.2329899 2.6117661 4282273362
-1.1848959 -1.2319138 2.6101346 4286023316
-1.6903014 -1.4770715 3.0546277 4291682295
-1.6805465 -1.48116 3.0623593 4290827758
-1.6683992 -1.4840839 3.0679922 4280696386
-1.657618 -1.4876512 3.0747964 4288129721
-1.6460716 -1.490959 3.0811238 4283853683
-1.6346231 -1.4946251 3.0880702 4290761443
-1.6232784 -1.4979557 3.0944586 4289708503
-1.6119421 -1.501404 3.101053 4286024591
-1.6010098 -1.5051162 3.1081243 4280760121
-1.588915 -1.5083066 3.1142483 4284838515
-1.5793 -1.5128055 3.1227453 4280957498
-1.5664903 -1.5156497 3.1282501 4289709015
-1.5551645 -1.5194985 3.1355553 4291879674
-1.5371052 -1.5191947 3.1354039 4282472290
-1.5260885 -1.5230706 3.142781 4280167478
-1.5151262 -1.5270398 3.1503272 4280232246
-1.5042132 -1.5310417 3.157939 4280101172
-1.4930795 -1.5349727 3.1654232 4280232753
-1.4818269 -1.5388439 3.1728051 4280101678
-1.4704522 -1.542695 3.1801517 4279773741
-1.4589558 -1.5465264 3.1874638 4279970348
-1.4475651 -1.5504309 3.1949134 4279969582
-1.4360719 -1.5543131 3.2023251 4279969327
-1.4245274 -1.5582101 3.2097657 4280101421
-1.4132766 -1.5623188 3.2175927 4280035625
-1.4019786 -1.5664504 3.2254627 4280035889
-1.3906099 -1.5705897 3.2333486 4279970351
-1.3695549 -1.5682404 3.2295296 4291024618
-1.358434 -1.5725715 3.237766 4291550708
-1.3459047 -1.5759894 3.2443569 4282143579
-1.3336195 -1.5795656 3.2512403 4284183160
-1.3210782 -1.5830715 3.2579918 4288195002
-1.3079422 -1.5861675 3.264008 4283459695
-1.2965502 -1.5905101 3.2722802 4283262571
-1.2848563 -1.5946902 3.280261 4283197294
-1.272644 -1.5985612 3.2876844 4280038196
-1.2597806 -1.6020118 3.2943497 4281814090
-1.2472755 -1.605703 3.3014572 4288588724
-1.2349424 -1.6095874 3.3089144 4280892471
-1.2229373 -1.6137501 3.3168778 4290630882
-1.2111396 -1.6181235 3.3252244 4291090414
-1.1935762 -1.6183556 3.3260653 4280761412
-1.1818295 -1.6228504 3.3346343 4280035370
-1.1699362 -1.6272645 3.3430624 4280035114
-1.1580278 -1.6317279 3.3515818 4279969577
-1.1459901 -1.6361352 3.360003 4279904296
-1.1339073 -1.6405694 3.368475 4279904295
-1.1217214 -1.644962 3.3768756 4279969574
-1.1095424 -1.649424 3.3854036 4279969321
-1.0973023 -1.6538929 3.3939469 4279969069
-1.084999 -1.6583605 3.4024911 4279903279
-1.0727068 -1.6629022 3.4111712 4279707182
-1.0604044 -1.6674936 3.4199443 4279838256
-1.0479978 -1.6720473 3.4286523 4280231980
-1.0355271 -1.6765938 3.437351 4280101931
-1.0183904 -1.6775355 3.4394851 4285169288
-1.0082438 -1.6836621 3.4511011 4291617271
-0.99561632 -1.6882976 3.4599628 4291683834
-0.98329943 -1.6931772 3.4692783 4291749883
-0.97055036 -1.6978232 3.4781651 4291880957
-0.95783252 -1.7025393 3.4871836 4292012286
-0.9450981 -1.7072995 3.496285 4292209407
-0.93246889 -1.7121925 3.5056329 4292341759
-0.9195466 -1.7169466 3.5147257 4292604927
-0.89933115 -1.7149559 3.511574 4290037961
-0.88267207 -1.7158624 3.5137177 4284901717
-0.86956429 -1.7205902 3.5227628 4285098580
-0.85652798 -1.725399 3.5319626 4285229401
-0.84415048 -1.7306648 3.5420175 4285162836
-0.83099741 -1.7354927 3.5512581 4284834380
-0.81836766 -1.7407365 3.5612724 4284900173
-0.80424809 -1.7449868 3.5694473 4285030990
-0.79070717 -1.7496628 3.5784171 4284965195
-0.7762509 -1.7535044 3.5858693 4283717186
-0.79966795 -1.8318599 3.725745 4279046928
-0.78654623 -1.8370286 3.7356968 4279178257
-0.77773982 -1.8465353 3.7535665 4279178512
-0.77012026 -1.8572315 3.7736268 4279309843
-0.75929898 -1.8647939 3.7879825 4279375124
-0.74976593 -1.8734527 3.8043749 4279375895
-0.74207807 -1.8837748 3.8238442 4279376150
-0.7317785 -1.8915248 3.8386276 4279310359
-0.72295988 -1.9005558 3.855792 4279310360
-0.71159315 -1.90597 3.8664527 4279310359
-0.71190214 -1.9235128 3.8993151 4279376152
-0.70009065 -1.9276915 3.9078255 4279376407
-0.69043857 -1.9339221 3.9201231 4279376152
-0.67977339 -1.9387666 3.9299269 4279376156
-0.67378724 -1.9481963 3.9481795 4279441692
-0.67032915 -1.9610273 3.9726272 4279507230
-0.66450548 -1.9719653 3.9935775 4279376412
-0.6549049 -1.9752368 4.0008163 4279310874
-0.65480793 -1.9936947 4.0354958 4279376154
-0.64608252 -1.9991065 4.0465965 4279375895
-0.64187884 -2.0095737 4.0669889 4279507223
-0.64158392 -2.0263679 4.0988545 4279375894
-0.63806278 -2.0412688 4.127131 4279375637
-0.63519669 -2.0571675 4.1572556 4279310359
-0.62636662 -2.062963 4.1691389 4279179287
-0.62342972 -2.0833745 4.2072263 4279244821
-0.61805177 -2.0994725 4.2375574 4279244562
-0.61358148 -2.1177084 4.2717657 4279309589
-0.60585058 -2.1329415 4.3004184 4279178771
-0.59748209 -2.1501906 4.3325748 4279178514
-0.58741182 -2.1654766 4.3611484 4279244051
-0.57611477 -2.1823912 4.3924847 4279178258
-0.56473958 -2.2014012 4.4275265 4279112724
-0.55148721 -2.2192159 4.4603052 4279046929
-0.53559893 -2.2350793 4.4894061 4279046929
-0.51902032 -2.2486238 4.5143833 4279112723
-0.50037783 -2.2627285 4.5401435 4279243539
-0.48172373 -2.2747016 4.5621743 4279046929
-0.46291795 -2.2889392 4.588191 4279046676
-0.44423983 -2.3000393 4.6087208 4279046673
-0.4242537 -2.3092473 4.6257901 4278980879
-0.40604293 -2.321897 4.6491361 4279046928
-0.39080021 -2.3371224 4.6773791 4284041317
-0.36265454 -2.4308248 4.8424411 4285949315
-0.3415812 -2.4349198 4.8504987 4287332251
-0.32098681 -2.4398463 4.8600841 4286872218
-0.3030211 -2.4496241 4.8785462 4286477460
-0.28076679 -2.4347022 4.8529272 4289312426
-0.2566582 -2.428287 4.8420749 4290167993
-0.24877295 -2.4523458 4.8869972 4290563005
-0.24279924 -2.4818237 4.9417877 4291155659
-0.22466415 -2.4922144 4.9614143 4291550933
-0.20607643 -2.5003047 4.9769359 4291748310
-0.18343842 -2.5026822 4.9818621 4292274139
-0.15194272 -2.4870062 4.9537163 4291747782
-0.11255358 -2.4534755 4.8929038 4288133491
-0.067460023 -2.4055395 4.805748 4290629864
-0.035888135 -2.3864017 4.7712574 4290105058
-0.0074352017 -2.3738351 4.7487731 4290433765
0.00050072622 -2.4077594 4.8114219 4290368225
0.030214638 -2.3923864 4.7837758 4290631141
-2.9293301 -1.4032139 2.9172523 4292469736
-2.9186013 -1.405943 2.9224999 4292535529
-2.9229333 -1.4146122 2.9381533 4292535531
-2.9026363 -1.4135821 2.936826 4292601070
-2.902838 -1.4206371 2.9496708 4292404459
-2.8990788 -1.4261402 2.9598053 4292404202
-2.8865418 -1.4282063 2.9639142 4292338410
-2.8943777 -1.4384471 2.9823775 4292403942
-2.8986185 -1.4473317 2.9984734 4291285714
-2.8353431 -1.4277409 2.9646091 4290693579
-2.7036631 -1.3792442 2.8799496 4290562497
-2.7218392 -1.3937405 2.9058809 4289639845
-2.6616671 -1.3745821 2.8727121 4289311388
-2.6652255 -1.383163 2.8882453 4289048981
-2.5703955 -1.3508424 2.8317659 4288983735
-2.3700981 -1.2736534 2.6962123 4291156215
-2.361201 -1.2768645 2.7022002 4291156987
-2.3521664 -1.280023 2.7080994 4290894585
-2.3432152 -1.28302 2.7137337 4291025658
-2.3341799 -1.2860849 2.7194846 4291156987
-2.3249829 -1.289209 2.7253358 4290960375
-2.3159299 -1.2922815 2.7311091 4291026168
-2.3069773 -1.2953333 2.7368557 4290960375
-2.2978182 -1.2984896 2.7427778 4291026171
-2.2887247 -1.3016601 2.7487311 4290829563
-2.2795904 -1.3048798 2.7547717 4291157499
-2.2706389 -1.308053 2.7607446 4291223031
-2.258424 -1.3092829 2.7633195 4283854455
-2.2483411 -1.3121295 2.7687092 4287011749
-2.2386575 -1.3152928 2.7746537 4283787130
-2.2293398 -1.3183677 2.7804661 4280498234
-2.2192063 -1.3214387 2.786248 4283919217
-2.2082362 -1.323948 2.7910521 4289905890
-2.1988692 -1.3270069 2.79685 4283656572
-2.1889381 -1.3300133 2.8025434 4289708760
-2.1798277 -1.3331467 2.8084874 4283327601
-2.170079 -1.3363706 2.8145666 4288458942
-2.1605196 -1.3396975 2.8208327 4291353331
-2.1482759 -1.3416778 2.8247159 4284709264
-2.1289966 -1.3409302 2.823698 4281089604
-2.119679 -1.3442384 2.8299515 4280429367
-2.1100461 -1.347544 2.8361938 4280036662
-2.1004031 -1.3508419 2.842428 4280232756
-2.0909855 -1.3541096 2.8486254 4280233526
-2.0813046 -1.357399 2.8548543 4280036662
-2.0713849 -1.3606195 2.8609622 4280102198
-2.0616109 -1.3638916 2.8671689 4280036662
-2.0518594 -1.3672049 2.8734519 4280167734
-2.0421023 -1.3704469 2.8796189 4280167479
-2.0323853 -1.3737786 2.8859458 4280167482
-2.0225968 -1.3771514 2.892345 4280167735
-2.0101137 -1.3784835 2.8951614 4279707947
-1.5800582 -1.2130979 2.5954993 4282142558
-1.5629567 -1.2131356 2.59567 4281681750
-1.4371419 -1.1680801 2.5139296 4286089372
-1.4268332 -1.1702937 2.5180683 4279905850
-1.4144763 -1.171578 2.5205302 4284840581
-1.4050666 -1.1740834 2.5252178 4286090138
-1.3958659 -1.1767976 2.5302744 4285761432
-1.3857931 -1.178932 2.534308 4286155932
-1.3739643 -1.1803464 2.5370307 4284052097
-1.3641901 -1.1827825 2.5415986 4282143326
-1.3556508 -1.186184 2.547873 4285497744
-1.3426493 -1.1870949 2.5496867 4281024584
-1.3333422 -1.1898601 2.5548508 4284312440
-1.3152177 -1.1877851 2.5513186 4281550154
-1.3056247 -1.1903892 2.5561984 4280103483
-1.2964089 -1.1932443 2.5615306 4280234302
-1.2870448 -1.196031 2.5667439 4280234300
-1.2773638 -1.1986432 2.5716479 4283590516
-1.2679067 -1.2014149 2.5768406 4285827741
-1.2585223 -1.2042542 2.5821579 4284314753
-1.2489638 -1.2070088 2.5873265 4286419358
-1.239269 -1.2097013 2.5923867 4285958554
-1.2296665 -1.212473 2.5975924 4280365627
-1.2200098 -1.2152354 2.6027839 4280563262
-1.2104157 -1.218065 2.6080992 4283063142
-1.201008 -1.2210398 2.6136782 4285957783
-1.1915926 -1.2238796 2.6190331 4285958038
-1.6931443 -1.4638093 3.0589328 4291485684
-1.683085 -1.4678223 3.0665751 4291223027
-1.6714116 -1.4708948 3.0725241 4281288523
-1.660515 -1.4745332 3.0794907 4281353795
-1.6479604 -1.477424 3.0850885 4290367193
-1.6374527 -1.4812752 3.0924532 4291617530
-1.6269017 -1.4851543 3.09987 4291879933
-1.6145214 -1.4880744 3.1055436 4288064189
-1.6036706 -1.4916986 3.1125183 4280564798
-1.5912834 -1.4947996 3.1185112 4290498271
-1.5809145 -1.4989642 3.1264534 4281222479
-1.5690441 -1.5021592 3.1326494 4289380046
-1.5577925 -1.5060331 3.1400528 4291814649
-1.5399107 -1.5058762 3.1401408 4282473048
-1.52854 -1.5095201 3.1471505 4280037168
-1.5176421 -1.5135036 3.1547787 4280035892
-1.5066868 -1.5174783 3.1623955 4280035637
-1.4955095 -1.5213809 3.1698811 4280166706
-1.4841619 -1.5252205 3.1772542 4280100658
-1.472932 -1.5291177 3.1847408 4279839023
-1.4614066 -1.5329307 3.1920702 4279904300
-1.4499955 -1.5368129 3.1995325 4280034861
-1.4384396 -1.5406692 3.2069478 4280035120
-1.4269211 -1.5445527 3.2144189 4279904556
-1.4156312 -1.5486351 3.2222538 4280101420
-1.4043113 -1.5527446 3.2301409 4280035631
-1.3929795 -1.5568931 3.2381015 4280166963
-1.3723462 -1.5549242 3.2349062 4291090407
-1.3610371 -1.5591012 3.2429247 4291419377
-1.3483306 -1.5623795 3.2493064 4282340703
-1.3357569 -1.5657704 3.2558968 4284446334
-1.3236579 -1.5695485 3.2631934 4284183164
-1.3114796 -1.5733154 3.2704711 4286615195
-1.2984822 -1.5765666 3.2768085 4280628281
-1.287053 -1.5809238 3.2851706 4280233776
-1.2745734 -1.5846049 3.2922986 4281944392
-1.2621189 -1.5883358 3.2995205 4288128693
-1.2498832 -1.592247 3.307076 4285564559
-1.2371298 -1.5958135 3.3140051 4280301107
-1.2251492 -1.5999837 3.3220401 4290564574
-1.2133943 -1.6043854 3.3304989 4291156205
-1.1955185 -1.6043929 3.3309145 4280958785
-1.1837674 -1.6088855 3.3395417 4280035630
-1.1718332 -1.6132561 3.3479519 4280034859
-1.1599077 -1.6177034 3.356504 4280035116
-1.1478467 -1.6220883 3.3649452 4280100394
-1.1357576 -1.6265173 3.3734684 4280100392
-1.1235671 -1.630906 3.3819222 4280166183
-1.1113722 -1.635358 3.3904932 4279969062
-1.0991096 -1.6398041 3.3990569 4279903531
-1.0867574 -1.6442218 3.4075718 4279903788
-1.0744613 -1.6487601 3.4163086 4279969067
-1.0621183 -1.6533079 3.4250662 4280035116
-1.0497481 -1.6579026 3.4339113 4280101166
-1.0372384 -1.6624095 3.442601 4280101935
-1.0209144 -1.6639239 3.4457932 4284249462
-1.011007 -1.6701945 3.4577715 4291617269
-0.9985261 -1.674926 3.4668772 4291682807
-0.98574567 -1.6795107 3.4757116 4291683578
-0.97293615 -1.6841214 3.4845967 4291749371
-0.96020365 -1.6888304 3.4936678 4292012027
-0.94765073 -1.6937126 3.5030637 4292275197
-0.93467134 -1.6983755 3.5120511 4292209917
-0.92168313 -1.7030861 3.5211291 4292473343
-0.89973509 -1.6994033 3.5148294 4289971655
-0.8853302 -1.702422 3.5208447 4285098840
-0.87197798 -1.7069707 3.5296233 4285032532
-0.85925281 -1.7119828 3.5392725 4285163343
-0.84616965 -1.7167904 3.5485427 4284966222
-0.83332968 -1.7218351 3.5582571 4285031503
-0.82041895 -1.7268963 3.5680034 4284900428
-0.80685401 -1.7315379 3.5769682 4284965453
-0.79295135 -1.7359632 3.5855329 4284703309
-0.77607334 -1.737036 3.5879793 4283651652
-0.82403141 -1.8355622 3.7666306 4279046929
-0.80399984 -1.8357083 3.7672644 4278981394
-0.7896198 -1.8407384 3.7769582 4278981906
-0.78070343 -1.8502885 3.7950766 4279179026
-0.77076316 -1.8588432 3.811378 4279244819
-0.76137531 -1.8678322 3.8285103 4279245080
-0.75241148 -1.8772095 3.8463829 4279376408
-0.74257845 -1.8856815 3.8626077 4279376408
-0.73162299 -1.8930227 3.8767617 4279245079
-0.71828979 -1.8966975 3.8842762 4279310615
-0.71900672 -1.9148437 3.9185419 4279310362
-0.71098804 -1.9236866 3.9356773 4279310615
-0.70254529 -1.9317561 3.9514353 4279376663
-0.68946826 -1.9340911 3.9566867 4279442200
-0.68419307 -1.9447651 3.9773679 4279573533
-0.68048924 -1.9577069 4.0022187 4279507995
-0.67120486 -1.9644334 4.0156155 4279376924
-0.66545731 -1.9734954 4.0334935 4279376669
-0.66325134 -1.9891427 4.063345 4279507738
-0.65796417 -2.0010481 4.0863342 4279507223
-0.65281272 -2.0113909 4.1066141 4279507224
-0.64989257 -2.0262628 4.1351337 4279375895
-0.64294678 -2.0327122 4.1484237 4279310102
-0.64108157 -2.0531175 4.1868844 4279244566
-0.63459915 -2.0660732 4.2117648 4279310104
-0.62772489 -2.0776079 4.2341266 4279244311
-0.62217259 -2.0958681 4.2685413 4279179030
-0.61608493 -2.1100953 4.2958117 4279179030
-0.60847354 -2.1244583 4.3231978 4279112982
-0.59947592 -2.1392727 4.3512702 4279309588
-0.58831286 -2.1581719 4.3863773 4279178003
-0.5772081 -2.1718676 4.4123125 4279112979
-0.5640136 -2.1904111 4.446641 4278981906
-0.55094308 -2.2069848 4.4775257 4279243794
-0.53588235 -2.2215226 4.5046148 4279112465
-0.51750904 -2.2369332 4.5329127 4279046929
-0.49971968 -2.2498269 4.5568333 4279177999
-0.48177153 -2.2614818 4.5785589 4279112465
-0.46229035 -2.2759233 4.6050777 4278981136
-0.44447961 -2.2871733 4.6261396 4278980879
-0.42412519 -2.2986197 4.6472783 4279112209
-0.40696663 -2.3083913 4.6658258 4279111953
-0.39289114 -2.3273728 4.7011275 4279046673
-0.36502433 -2.4165375 4.859621 4287134101
-0.34583241 -2.4238141 4.8736148 4286607764
-0.32508022 -2.4287386 4.8832507 4286477201
-0.30616987 -2.4370291 4.8991075 4286871701
-0.28470954 -2.4241781 4.8770213 4281218459
-0.2581979 -2.4133139 4.8578291 4287143081
-0.24845269 -2.4345367 4.8978748 4282929750
-0.2299003 -2.4438908 4.9157124 4283126872
-0.21551411 -2.4608161 4.9475989 4283061335
-0.19723256 -2.4719658 4.9687243 4283193693
-0.17964564 -2.4839082 4.9913764 4290235842
-0.15977059 -2.4919519 5.0067964 4289027685
-0.099005327 -2.4085059 4.853425 4289972961
-0.021789083 -2.2911856 4.6371317 4290564836
-0.024865482 -2.346277 4.7394962 4290367714
0.002938451 -2.3349481 4.7190433 4290433509
0.024373675 -2.3374217 4.7241178 4290696684
0.045962729 -2.3403308 4.7299557 4290564840
-2.9795156 -1.4068944 2.9519594 4292403943
-2.9499872 -1.4023836 2.9444439 4292338920
-2.9556091 -1.4115258 2.9610925 4292601323
-2.9523892 -1.4172468 2.9716961 4292273387
-2.955821 -1.4255782 2.9869363 4292273387
-2.9309759 -1.4228088 2.9825058 4292141803
-2.9462442 -1.4358888 3.0061867 4292273639
-2.9248724 -1.4345455 3.0042856 4292273385
-2.9343681 -1.4454839 3.0241907 4291746268
-2.8729553 -1.4273105 2.9924388 4290824906
-2.7391858 -1.3782711 2.9058964 4290431167
-2.7511945 -1.390135 2.9274223 4289574050
-2.6858029 -1.3692089 2.8907285 4284573793
-2.6904678 -1.3781946 2.9071367 4288851859
-2.708147 -1.3927811 2.9335175 4292866792
-2.3739011 -1.2615023 2.7001481 4291090166
-2.3649914 -1.2645051 2.7058222 4291156987
-2.3559244 -1.2676038 2.7116597 4291025659
-2.3468616 -1.2706764 2.7174578 4291025402
-2.3377585 -1.2737505 2.7232623 4290960123
-2.3285737 -1.2767611 2.7289605 4290895098
-2.3194246 -1.2798468 2.7347932 4290894840
-2.3104162 -1.282894 2.7405701 4290960377
-2.3013468 -1.2859665 2.7463932 4291090938
-2.292192 -1.2891436 2.7523968 4290960122
-2.2831044 -1.2923251 2.7584162 4290960634
-2.2741444 -1.2954944 2.7644241 4291091705
-2.261447 -1.2964475 2.7665164 4283460727
-2.2508376 -1.2992939 2.7719216 4281683541
-2.2419047 -1.3024222 2.777874 4286484638
-2.2321565 -1.3052647 2.783313 4285893020
-2.2224677 -1.3086027 2.7896066 4283985270
-2.2115223 -1.3111235 2.7944601 4290366440
-2.2023153 -1.3143637 2.8006141 4290498284
-2.1926041 -1.3173344 2.806293 4291288312
-2.1824608 -1.3202991 2.81195 4284249220
-2.1726596 -1.3234037 2.8178644 4286815400
-2.1638954 -1.326848 2.8244064 4291222516
-2.1526661 -1.3295813 2.8296385 4285498781
-2.1322272 -1.3280864 2.8272622 4280234554
-2.122824 -1.3313715 2.8335166 4279905078
-2.1132953 -1.3346657 2.839787 4280036151
-2.1036851 -1.3379506 2.8460436 4280298294
-2.0942934 -1.3412108 2.8522727 4280102201
-2.0843871 -1.3444711 2.8584855 4279971128
-2.0745583 -1.3476934 2.8646421 4280102455
-2.0648265 -1.3509523 2.8708708 4280036662
-2.0550172 -1.3542484 2.8771658 4280035894
-2.0452328 -1.3575151 2.8834169 4280167480
-2.0354872 -1.3608381 2.8897715 4280035639
-2.0258169 -1.3641893 2.8961837 4280101685
-2.0136504 -1.3659946 2.8998361 4279838766
-1.5902238 -1.2045474 2.6040599 4280037948
-1.6430653 -1.2329359 2.6562531 4280169531
-1.4387755 -1.1565617 2.5160851 4283327090
-1.4277136 -1.1584256 2.5196092 4280170302
-1.4152186 -1.1596507 2.5219679 4284445565
-1.4059345 -1.1622245 2.5268078 4286090138
-1.3962343 -1.1646842 2.5314343 4285499543
-1.3866748 -1.167184 2.5361421 4285892762
-1.3764203 -1.1694639 2.5404394 4284445312
-1.3667463 -1.1719873 2.5451903 4280958280
-1.3566976 -1.1743916 2.5497205 4281551700
-1.3436788 -1.175308 2.5515416 4280695877
-1.3345896 -1.178192 2.5569546 4283786871
-1.3160933 -1.1759417 2.5530467 4284642433
-1.3066537 -1.1786292 2.5581086 4282340190
-1.2973919 -1.1814479 2.5634105 4280365370
-1.288185 -1.1843207 2.568814 4280365117
-1.2783682 -1.1868471 2.5735939 4283063401
-1.268777 -1.1895292 2.5786586 4286024088
-1.2593974 -1.1923625 2.5840003 4284840579
-1.2497696 -1.1950672 2.589112 4286419616
-1.2400787 -1.1977549 2.5941963 4286023576
-1.230552 -1.2005645 2.5995045 4279906357
-1.2211002 -1.2034464 2.6049471 4282998631
-1.2112808 -1.2061285 2.6100297 4285695127
-1.2021236 -1.2092499 2.6159127 4285892758
-1.1927315 -1.2121462 2.6214011 4286089878
-1.6958644 -1.4504478 3.0631363 4291353841
-1.6858207 -1.4544126 3.0707521 4291420409
-1.674253 -1.45768 3.0770824 4281289809
-1.6614205 -1.4602768 3.0821857 4290563809
-1.6507018 -1.4639782 3.0893257 4291617018
-1.6402135 -1.4678373 3.0967584 4291617274
-1.6286191 -1.4712242 3.1033154 4287472314
-1.6161473 -1.4742361 3.1091766 4280432444
-1.6056743 -1.4781829 3.1167805 4280235064
-1.5946084 -1.4818704 3.1239069 4280694585
-1.5836128 -1.4856094 3.1311328 4280496950
-1.5715572 -1.4886 3.1370049 4289116875
-1.5603863 -1.4924986 3.1445084 4291879931
-1.542209 -1.4922404 3.144381 4282735717
-1.530866 -1.4958707 3.1514175 4280167730
-1.5200623 -1.4998764 3.1591451 4280167476
-1.5090337 -1.5038089 3.1667383 4279970101
-1.4978921 -1.5077112 3.174279 4280233007
-1.4865582 -1.5115504 3.1817048 4280035885
-1.4751239 -1.5153589 3.1890771 4279903792
-1.4637378 -1.5192188 3.1965485 4280035377
-1.4523457 -1.5231094 3.2040796 4279903790
-1.4408054 -1.5269611 3.21154 4280035122
-1.42917 -1.5307889 3.2189593 4279772719
-1.4179034 -1.5348716 3.2268527 4279969582
-1.406526 -1.5389372 3.2347164 4280297775
-1.3952013 -1.5430876 3.2427382 4280167983
-1.3747517 -1.5412608 3.239748 4290958822
-1.3635232 -1.5454994 3.2479377 4291419377
-1.3509295 -1.5488545 3.2545028 4282866792
-1.3392233 -1.5529051 3.2623456 4279971896
-1.327113 -1.5566486 3.2696331 4283853422
-1.31407 -1.5597632 3.2757654 4290629602
-1.3008206 -1.562843 3.2818274 4280366651
-1.289341 -1.56717 3.2901947 4281023803
-1.2772748 -1.5710714 3.2977853 4289576648
-1.2648226 -1.5747883 3.3050332 4288392892
-1.2516884 -1.5781376 3.3115964 4283129952
-1.2392082 -1.5819046 3.3189418 4280169014
-1.2275183 -1.5862762 3.3274071 4290695907
-1.2155551 -1.5905241 3.3356442 4291353327
-1.1974181 -1.590358 3.3357189 4280826943
-1.1855065 -1.594684 3.3441062 4280035117
-1.1736766 -1.5991607 3.3527706 4279904048
-1.1617142 -1.60357 3.3613155 4279772970
-1.1496439 -1.607946 3.3698018 4279903529
-1.1374973 -1.6123104 3.3782694 4279969322
-1.1253624 -1.6167634 3.3869011 4280099883
-1.113163 -1.6212147 3.3955328 4280034351
-1.1008555 -1.6256106 3.404067 4279969068
-1.0884844 -1.6300161 3.412621 4279772715
-1.0761603 -1.6345257 3.4213686 4279838253
-1.0637915 -1.6390437 3.430136 4279969582
-1.0514361 -1.6436594 3.4390838 4280101167
-1.0389324 -1.648176 3.4478538 4280364595
-1.0229231 -1.6499389 3.4515166 4288064950
-1.0132583 -1.6563375 3.4638362 4291419635
-1.0006691 -1.6609985 3.4728763 4291485943
-0.9881475 -1.665745 3.4820812 4291683319
-0.97577345 -1.6706372 3.4915631 4291683576
-0.96305978 -1.675365 3.500736 4291815160
-0.9497633 -1.6797622 3.5092874 4292012283
-0.93694282 -1.6845307 3.5185399 4291881724
-0.92425901 -1.6894459 3.5280704 4292078847
-0.90187526 -1.6854454 3.5210912 4289641922
-0.88841885 -1.6892276 3.5285699 4285033056
-0.87508881 -1.6937827 3.5374265 4285229658
-0.86129409 -1.6980623 3.5457647 4285163859
-0.8481673 -1.70284 3.5550473 4284966478
-0.83552462 -1.7080261 3.5651014 4284834891
-0.82256401 -1.7130593 3.5748675 4284966221
-0.80943573 -1.7180164 3.5844934 4284834893
-0.79512864 -1.7221434 3.5925577 4284703310
-0.77725369 -1.7225071 3.5936637 4283453760
-0.83083308 -1.8245993 3.7808094 4278915853
-0.81433386 -1.8278383 3.7872181 4278981394
-0.80087066 -1.8337543 3.7986419 4279244052
-0.79371822 -1.8448056 3.8197436 4279244308
-0.77792662 -1.8487443 3.827482 4279310101
-0.77078426 -1.8597693 3.8485794 4279506966
-0.76070321 -1.8683255 3.8650539 4279441688
-0.75253999 -1.8786095 3.884789 4279441689
-0.74188745 -1.8865243 3.9001138 4279507481
-0.73420149 -1.8966449 3.9196515 4279376666
-0.72640967 -1.9061574 3.9381273 4279310873
-0.71788782 -1.9147007 3.9548376 4279376409
-0.70944428 -1.9231355 3.9713848 4279442202
-0.70546734 -1.9365945 3.9973061 4279376923
-0.69928086 -1.9468241 4.0173125 4279442203
-0.69227982 -1.9565278 4.0363297 4279441948
-0.6770727 -1.9556063 4.0356798 4279573021
-0.67353404 -1.969232 4.0620527 4279441947
-0.67070544 -1.9833585 4.0894237 4279442200
-0.66560233 -1.9959198 4.1138144 4279442200
-0.66106933 -2.0085919 4.1384935 4279179799
-0.65598774 -2.021394 4.1633801 4279245338
-0.64874047 -2.0301256 4.1808286 4279244823
-0.64452118 -2.0437424 4.2073188 4279310360
-0.63737285 -2.0566204 4.2322187 4279244308
-0.63070118 -2.0699215 4.2579556 4279244822
-0.62468231 -2.0872483 4.2909746 4279113492
-0.61776131 -2.0992453 4.3144288 4279112978
-0.60990107 -2.112905 4.3407812 4279243798
-0.59857374 -2.1318786 4.3762798 4279178004
-0.5885511 -2.1453314 4.4020967 4279178521
-0.57585466 -2.1599991 4.4298224 4279112981
-0.56288254 -2.1765389 4.4608941 4279178258
-0.54963678 -2.1925871 4.4910889 4279047441
-0.53420895 -2.2074265 4.5189075 4278915600
-0.51641232 -2.221781 4.5456181 4279046929
-0.49803656 -2.2349107 4.5700927 4278981136
-0.4802025 -2.2467632 4.5923629 4279046673
-0.4612287 -2.2610714 4.6189213 4278981392
-0.44207886 -2.2731664 4.6415143 4278784783
-0.42222515 -2.2839789 4.6617451 4279046931
-0.40642339 -2.2943943 4.6817594 4278981392
-0.39296553 -2.314326 4.7191501 4278915857
-0.36768833 -2.4025145 4.8776212 4282075721
-0.34806281 -2.4093115 4.8908138 4283195744
-0.32924452 -2.4173398 4.9063282 4282669149
-0.30869564 -2.4232183 4.9177828 4282866013
-0.28694519 -2.4097114 4.8942604 4284839802
-0.26721874 -2.4159231 4.9064183 4286879907
-0.24873111 -2.4191754 4.9134192 4287275432
-0.23421776 -2.4350812 4.9437075 4288393921
-0.21440054 -2.4455755 4.9636121 4289117388
-0.19433521 -2.4605186 4.9915209 4289380814
-0.17397 -2.4697194 5.0090671 4289775829
-0.15149848 -2.4740243 5.0175271 4290169818
-0.10238132 -2.400399 4.8818922 4290104024
-0.015255406 -2.2616534 4.623529 4290630370
0.011749888 -2.2514484 4.6049199 4290499041
0.019449722 -2.2828994 4.6641226 4290631400
0.037957747 -2.2912531 4.6801968 4290565863
0.060322218 -2.2921369 4.6822577 4290367712
-3.0216575 -1.4070896 2.9811947 4292272871
-3.0160172 -1.4118798 2.990227 4292404203
-2.9938161 -1.4103014 2.9878657 4292470255
-2.9943304 -1.4174769 3.0011795 4292535533
-3.0045218 -1.4284196 3.0212569 4292535277
-2.9904091 -1.4299365 3.0244541 4292338666
-2.982897 -1.4340665 3.0323377 4292273129
-2.9720187 -1.4369293 3.0379505 4292338667
-2.9779279 -1.446422 3.0554707 4292074726
-2.9939313 -1.4599905 3.0803263 4290824649
-2.7527633 -1.3682207 2.9160991 4287341244
-2.7878699 -1.3891792 2.9541972 4289377182
-2.7166843 -1.36633 2.9136212 4284771686
-2.7220879 -1.3755591 2.9306362 4284375637
-2.7552466 -1.3963202 2.9684107 4292604391
-2.3777213 -1.2491601 2.7038286 4291353336
-2.3687534 -1.2522007 2.7096052 4290829300
-2.3596089 -1.2551838 2.7152822 4290829816
-2.350456 -1.258276 2.7211514 4291025914
-2.3413084 -1.2613194 2.7269418 4291091707
-2.331985 -1.2643973 2.7327907 4290895353
-2.3228931 -1.2673285 2.7384 4290895354
-2.3138707 -1.2703453 2.7441642 4290895098
-2.3047061 -1.2734318 2.7500486 4290960378
-2.2956536 -1.2765323 2.7559664 4291157239
-2.2865343 -1.2797105 2.7620211 4291157241
-2.277544 -1.282891 2.7680898 4291486456
-2.2643957 -1.283686 2.7698958 4283526268
-2.253535 -1.286438 2.7751634 4280366656
-2.2446229 -1.2894604 2.7809758 4285761170
-2.2353001 -1.2925153 2.7868335 4287866048
-2.2255342 -1.2956932 2.7928917 4283722615
-2.2149503 -1.2982764 2.7978971 4290103781
-2.2049959 -1.301313 2.8037136 4287408836
-2.1953762 -1.3043878 2.8096142 4285566880
-2.1857131 -1.3074663 2.8155246 4282012511
-2.1755626 -1.3104371 2.8212342 4285565075
-2.1670976 -1.3139518 2.8279576 4291090926
-2.1557562 -1.3167657 2.8333571 4284775318
-2.1353796 -1.3151625 2.8307498 4280695105
-2.1257229 -1.3184474 2.8370368 4279971126
-2.1163781 -1.3217242 2.8433292 4280101944
-2.106894 -1.3249991 2.849618 4280036152
-2.0970988 -1.3282442 2.8558474 4280035893
-2.0874393 -1.3314673 2.8620498 4280101431
-2.0776732 -1.3346951 2.8682616 4280167476
-2.0679338 -1.3379436 2.8745155 4280167220
-2.0581822 -1.3412274 2.8808358 4280232758
-2.0482354 -1.3444762 2.8870924 4280101684
-2.0384333 -1.3478092 2.8935065 4279970357
-2.0288939 -1.351149 2.8999503 4280036405
-2.0173542 -1.3534604 2.904526 4279774005
-1.6054015 -1.1979603 2.6164408 4282405471
-1.6484871 -1.2221147 2.6613526 4282406500
-1.4405408 -1.1450675 2.5183258 4280169533
-1.4291978 -1.146854 2.521718 4280300349
-1.4175396 -1.148609 2.5250401 4283787638
-1.4083211 -1.1512643 2.5300553 4286155676
-1.3992927 -1.1540589 2.5353262 4287735223
-1.3900453 -1.1567582 2.5404255 4286221470
-1.3793721 -1.1586388 2.5440378 4283721333
-1.3679441 -1.1603668 2.5473449 4280497214
-1.3576292 -1.162519 2.5514529 4280300090
-1.3446678 -1.1634781 2.5533497 4280168759
-1.3360838 -1.1666384 2.5593054 4280695103
-1.31802 -1.1647044 2.5559103 4286417821
