# .PCD v0.7 - Point Cloud Data file format
VERSION 0.7
FIELDS x y z rgb
SIZE 4 4 4 4
TYPE F F F U
COUNT 1 1 1 1
WIDTH 1101
HEIGHT 1
VIEWPOINT 0 0 0 1 0 0 0
POINTS 1101
DATA ascii
2.0665216 -1.3993304 -32.574554 4292011770
-0.74772739 0.50950289 -61.883705 4292077045
-23.671774 7.4367113 -133.87054 4279442463
1.7834239 -2.311383 -18.628153 4280233523
-7.0936041 -5.53901 47.908932 4279968299
24.863512 32.05537 -599.24121 4279512614
-12.239315 1.9529426 -64.238579 4292797940
-2.1009707 -0.34626788 0.55634058 4279639839
-2.1852512 -0.096740335 2.07148 4280495408
-1.6536103 -0.17825878 -51.925606 4292339443
2.1958964 -2.187885 -21.244879 4281221703
-2.1327722 -0.27564588 -0.048905134 4279183394
-10.783253 6.2929831 -141.81522 4291551462
-0.3375594 -2.1464467 -17.121351 4279582003
-1.8562137 -5.054359 35.204384 4279376668
-3.6480994 -1.3732066 -25.976297 4278987301
-21.855844 6.3904934 -115.67265 4292010726
-3.0068932 -1.9591665 -25.048487 4279116322
-1.2124641 0.032885697 -53.866238 4279706926
2.3553958 -1.1604412 -35.204659 4280100394
-0.59548813 -1.7183762 -25.845984 4292274164
-11.55552 10.334979 -196.45305 4291748585
-4.3642287 -3.9707763 18.57395 4279445281
-0.56251073 -4.2091846 19.190592 4279573788
-1.8562137 -5.054359 35.204384 4279376668
-4.8875403 -4.2934346 27.694609 4279443746
1.4824668 -2.242233 -18.794931 4280236346
-3.3985415 -6.0703506 54.659008 4279640355
-2.6942794 -7.0183668 67.226318 4279771429
-9.4511547 -0.75441992 -21.296396 4279376151
-4.5368433 -3.9647355 18.561403 4279772966
5.2738194 -6.328126 41.853455 4279771937
-5.5837202 -1.0353256 -28.601179 4291484644
-3.1485872 -4.1232667 20.138874 4279312162
0.91018808 -6.290843 45.771961 4291550437
-1.965359 -0.33223975 0.098320745 4279639842
-5.2154293 -1.1893444 -20.541246 4279051551
-9.020215 -4.9198356 47.381863 4279772198
20.278172 9.140461 -239.68472 4279770915
-1.6479725 -2.0115485 -18.597761 4279772715
-85.529716 30.078054 -353.37225 4279313696
-3.121043 0.43984509 -58.120552 4291551468
-87.987045 36.53516 -471.58182 4279574302
7.194242 -0.57225126 -53.765949 4280171060
-0.30046079 -2.0954063 -17.451534 4292668927
-4.6985798 -1.525323 -16.827299 4279573793
-5.0047464 -4.7423987 34.626419 4279902239
10.002417 -0.058513824 -67.717361 4280297265
-2.4198391 -0.078737378 -50.528999 4292536056
-0.56251073 -4.2091846 19.190592 4279573788
-3.0875039 -1.5434632 -18.255651 4279507997
10.866652 0.5114516 -78.229332 4292471295
-4.7098131 -1.1630436 -33.913891 4291353318
9.5829325 -10.473436 111.99324 4291484903
-4.5987549 -1.8561019 -11.764435 4279836703
2.0169666 -1.7306961 -27.167778 4292274174
-2.1332111 -0.27669203 0.17473865 4279837480
-3.1485872 -4.1232667 20.138874 4279312162
-1.8310899 -4.5604696 25.016104 4292142069
2.9864402 3.4675906 -109.58566 4292602613
2.3553958 -1.1604412 -35.204659 4280100394
-6.0491929 -0.58630657 -39.995518 4279183395
-2.4678764 -1.1846516 -25.153557 4279705377
-1.2768103 -1.8415809 -20.976826 4292208889
-0.04920781 -2.015265 -19.599182 4279447854
4.5797615 10.608822 -96.412178 4278657821
-10.783253 6.2929831 -141.81522 4291551462
-1.3236871 -8.2276411 80.808846 4292405228
1.8749892 -1.8450054 -25.154444 4292668671
-2.2213328 -0.30213156 0.1381892 4279575846
-1.965359 -0.33223975 0.098320745 4279639842
-34.096573 -25.892128 436.24722 4280165160
-2.150574 -3.8201687 14.779408 4279443746
-1.9668183 -0.35069966 0.23443392 4279708465
-4.6047716 -5.6982322 45.524406 4280038194
2.0169666 -1.7306961 -27.167778 4292274174
-1.6983482 -1.9924934 -16.408442 4279901991
-1.9082816 -2.0025713 -14.364082 4279706408
-0.79386854 -1.5435265 -29.543758 4290238170
-0.79386854 -1.5435265 -29.543758 4290238170
8.1285 1.6046749 -90.469498 4279903528
-15.82315 -9.9592619 133.53171 4280035885
-2.6667128 -4.576201 28.389986 4292142836
-8.0414467 -5.9708691 58.60355 4279841073
9.5668907 -0.4407925 -61.941597 4292669183
0.74975479 -4.6933169 22.684298 4279576867
0.2171495 -5.0289259 29.806442 4291747565
-8.4035988 -0.34138927 -28.324717 4291089888
-36.328289 -16.629301 289.2114 4292537854
-2.1394751 -0.26582763 -0.58630162 4279245848
-7.1992941 3.2417216 -95.650574 4278986275
2.4702127 -1.0684992 -40.926926 4280034860
-8.1768637 -24.383486 345.46634 4292142323
-5.0090833 -1.4014827 -18.049038 4291417821
-5.3580055 -1.2464094 -20.218204 4291812327
-1.5610347 -4.4138288 22.851507 4279248162
1.8693177 -1.0123981 -37.846462 4280034348
-1.950457 -0.27486321 -1.7634495 4279706150
5.8482971 -5.9951816 30.960659 4279507740
-3.8438368 -4.8128424 33.041668 4279841065
-2.9371896 -4.0506115 18.193192 4279641384
-3.6490312 -13.937216 172.70583 4292667891
0.2171495 -5.0289259 29.806442 4291747565
21.166113 5.7746673 -181.18127 4292668666
-8.0374937 -5.013515 41.896557 4279250472
-2.636884 -4.7482839 27.877193 4280033575
-2.0777907 -1.8811924 -14.629944 4292405752
0.17255265 -4.6658621 23.653692 4279444515
1.6265128 -1.7715117 -25.938337 4292405759
-2.0106246 -0.27090499 0.84076953 4279441688
-101.49762 47.591488 -726.72485 4291813098
18.42741 -10.089102 68.743729 4279314716
-101.49762 47.591488 -726.72485 4291813098
-1.6251578 -0.18627448 -4.4575047 4279903271
-2.1650038 -0.27344286 0.2766445 4279837993
-2.2499154 -0.72964686 4.163136 4279247643
-21.855844 6.3904934 -115.67265 4292010726
-2.3430827 -0.39952317 -1.2291591 4279180061
-2.1394751 -0.26582763 -0.58630162 4279245848
-0.92062151 -4.0830526 15.54101 4279772193
-2.1241517 -0.24836437 0.35317391 4280165676
-17.010475 -6.6186323 84.320946 4292666610
-2.1622024 -0.2789067 -0.71124643 4279772194
-1.7662941 -0.50891113 -63.872707 4280698178
-7.8753304 -5.4007792 50.900784 4279903014
-3.7766733 -4.1938529 22.886024 4279183389
-0.94226217 -1.6063962 -24.023146 4292340476
3.1972961 -5.1443868 25.028742 4292010739
-2.0043211 -0.26502168 0.91532546 4279442204
-3.121043 0.43984509 -58.120552 4291551468
-2.0043211 -0.26502168 0.91532546 4279442204
3.1397264 -0.32371226 -54.190628 4278923810
-2.0995169 -0.23837444 -0.94321352 4279379232
7.1208744 -0.77469856 -51.702442 4292537087
-6.2967191 -4.1842394 25.567326 4280299309
-2.1648622 -0.32882345 0.35381705 4279574047
-5.9979544 -0.45867246 -39.90659 4278526236
3.1972961 -5.1443868 25.028742 4292010739
-14.339083 1.2070864 -45.242306 4279246362
-0.96900243 -7.2341466 67.918251 4279837729
-4.4818687 -1.3915461 -17.261427 4279377953
60.91975 208.13542 -3441.4414 4279771427
1.6188331 -2.5410376 -14.558125 4292799231
-9.389864 -6.9838705 76.473595 4279511593
-6.4407458 -4.355197 28.889214 4280100394
-5.4850712 -0.94053292 -38.613514 4292076521
-1.8320346 -0.21065606 1.4715979 4279507744
-6.9239292 -5.0223804 40.766926 4279903270
-2.1650038 -0.27344286 0.2766445 4279837993
-3.0068932 -1.9591665 -25.048487 4279116322
-1.2124641 0.032885697 -53.866238 4279706926
-2.0561483 -0.34185678 0.51225859 4279442973
2.2464981 -5.0623708 29.819431 4279051296
-21.18446 3.7989023 -73.13549 4279116065
-16.96545 -14.250729 204.14548 4292274426
-3.0283601 -4.8145747 31.616741 4292273398
-2.9543905 -1.5165405 -13.705511 4279507995
6.2840829 -1.1393149 -45.053127 4280430128
3.3404248 6.1160307 123.56246 4279182627
-2.0677454 -0.31284219 -0.47711399 4279640098
-2.5010629 -2.6561561 -31.366678 4279771684
-2.9543905 -1.5165405 -13.705511 4279507995
-2.1185629 -0.21227655 -0.68096697 4279181087
-0.035706822 -2.0862453 -18.83848 4278727470
-19.895142 -19.354685 279.83978 4279837225
-5.9424953 -1.0459244 -28.942928 4279507996
-25.426937 -10.276609 154.86905 4280231726
-2.3430827 -0.39952317 -1.2291591 4279180061
1.6175902 -1.632696 -27.503796 4279970865
-5.6110258 -1.6261483 -13.945727 4279376665
-2.4722531 -0.53167468 3.9420722 4280034601
-3.6541786 -4.1604166 22.666512 4279512614
-10.626065 0.94486821 -47.428913 4291419111
-1.7258632 -0.14185962 2.4913621 4279574048
1.7762455 -2.0975637 -21.292439 4280040764
1.5729752 -2.1596656 -19.008924 4280232495
-8.8735161 -0.043060072 -30.581396 4279378206
-19.341604 -6.9230566 93.552002 4292207850
-1.950457 -0.27486321 -1.7634495 4279706150
0.51140076 -4.525383 20.659748 4279183390
1786.6803 697.30231 -14180.569 4280166192
-2.1650066 0.63459975 -14.047533 4279902756
-102.63152 40.547543 -517.62146 4291287525
6.6706734 -6.9085445 49.420177 4279643429
-24.184845 5.1787877 -84.67038 4278722332
14.457274 -8.7650805 58.372364 4291220448
-6.3608522 -4.5095429 30.938765 4279904815
-2.8327906 -1.3401018 -29.659161 4291681775
14.714184 1.7511762 -102.49641 4280494130
-2.8327906 -1.3401018 -29.659161 4291681775
-8.8735161 -0.043060072 -30.581396 4279378206
2.409936 -0.50225419 -47.978336 4292668670
-0.8368476 -1.761294 -22.695272 4292799741
-2.0168936 -0.26969418 0.8117702 4279639326
-3.3084886 -4.0088115 19.68195 4291945718
10.866652 0.5114516 -78.229332 4292471295
-2.1525941 -0.35235313 -0.50143218 4279442717
-5.8120251 -1.3368924 -17.35338 4279244821
9.6208954 0.046185784 -67.92189 4280429872
-3.5201125 -4.037765 20.493345 4279771943
21.166113 5.7746673 -181.18127 4292668666
-9.5567989 0.28167543 -38.762207 4291155937
-6.5718608 -5.9874539 58.460651 4279969579
-3.0824664 -1.6515363 -12.50401 4279445544
-2.5010629 -2.6561561 -31.366678 4279771684
-1.5717428 -3.9514706 14.973662 4279837986
0.2324257 -4.5882907 21.477783 4290826704
-16.359642 -37.467846 536.07257 4279837222
-3.0875039 -1.5434632 -18.255651 4279507997
-16.366074 2.0563195 -50.646378 4278656795
-8.8564568 -0.10032891 -31.666628 4291878377
-1.351926 -0.48124582 -48.364994 4292799227
2.6843367 -0.86330074 -43.850254 4292536826
-2.1553547 -0.24551004 -1.1165392 4279245851
-1.1721627 -10.064032 106.36423 4279381028
21.095476 -11.694933 98.161522 4279184158
-12.304325 -6.633666 77.210732 4279902246
-1.9842343 -0.31815544 0.45181537 4279771940
-2.1673112 -0.31574574 0.37239337 4279377438
-2.205379 -0.3028231 0.003880922 4279183134
2.9586761 -4.8796349 21.166006 4279182614
-3.9280183 -4.4804287 28.370682 4279706662
4.2542319 -1.1679728 -40.040855 4279837736
-1.9668183 -0.35069966 0.23443392 4279708465
-2.1332111 -0.27669203 0.17473865 4279837480
-1.8546406 -0.33066598 1.044764 4279639324
-5.8120251 -1.3368924 -17.35338 4279244821
0.0051376321 -2.1287482 -17.758575 4292865023
-5.9715552 -4.049644 23.587383 4280037680
-36.328289 -16.629301 289.2114 4292537854
-1.1964022 -1.1957722 -35.538815 4291946226
0.020443449 -2.1532438 -17.311014 4279907126
2.6715858 -4.8891416 23.358107 4279249188
-1.9743211 -1.9796709 -17.31127 4291880435
1.8926089 -5.1950016 28.257063 4279640094
2.0635138 -1.9716084 -23.864656 4280364081
-1.9701098 -0.33261481 0.047295343 4291617520
-3.2136674 -1.6626083 -12.615828 4291943144
2.9864402 3.4675906 -109.58566 4292602613
-8.1579304 -0.48231608 -26.06642 4279311388
-2.0520692 -0.27273753 0.7838608 4279836705
-2.1175528 -1.9224311 -13.365687 4279708458
6.6706734 -6.9085445 49.420177 4279643429
3.0097377 -4.9089346 21.813736 4292470261
4.6239095 -1.2188182 -39.695824 4292274686
4.0120897 -5.8637934 37.27121 4279119153
-2.1039405 -0.33706421 -0.483971 4279509023
-1.7841604 -0.74204206 2.8347521 4279312156
-6.0209899 -4.1900992 25.258593 4280101936
-5.9424953 -1.0459244 -28.942928 4279507996
-2.1789432 -0.26813176 0.047042761 4279246109
-2.4132318 -4.6027598 28.416368 4279574815
-2.7752583 -3.8472352 15.550467 4279705894
-2.1525941 -0.35235313 -0.50143218 4279442717
-6.7225289 -0.38602701 -53.661827 4279640864
-11.84199 0.78319561 -40.315212 4279507994
-2.4722531 -0.53167468 3.9420722 4280034601
-1.1964022 -1.1957722 -35.538815 4291946226
-4.2617164 -4.2631416 24.569748 4292404476
-31.171442 8.0995626 -119.76865 4279246109
-2.1789432 -0.26813176 0.047042761 4279246109
1.6004882 -2.3064582 -18.585171 4293128191
17.381947 -15.568044 189.93109 4279576611
-5.0448718 -1.1830688 -24.285496 4279442460
-3.133213 -1.3062407 -40.357994 4279508256
-1.0018462 -5.0214605 28.639437 4279509793
9.0293036 -7.623404 56.973576 4279574305
0.64682251 -4.7085562 23.431587 4278722585
-7.4041243 0.034079205 -46.203564 4279509026
-1.9290928 -0.33528766 -0.24778697 4279903273
3.3928461 -73.048325 260.21045 4284967250
12.775732 -8.3258829 56.472466 4279246627
-4.8875403 -4.2934346 27.694609 4279443746
-2.3861065 -0.0077540255 -2.61518 4279377438
-2.6423161 -4.0070934 17.355616 4278656791
6.6872849 7.9554596 -188.60071 4280103981
-2.1039405 -0.33706421 -0.483971 4279509023
-32.743801 8.1662283 -120.21136 4291024608
1.8154621 3.2911072 -101.94076 4292601841
-2.2152913 -0.37436232 0.14554171 4279707175
-9.5567989 0.28167543 -38.762207 4291155937
2.4404817 -6.7621775 53.178432 4279312929
-0.79579878 -4.9967752 31.001625 4279314728
-1.8465316 -0.43039343 1.7988454 4279508512
-16.324965 2.0997252 -54.236698 4278983965
-1.4681019 -2.1607885 -14.968302 4280231983
0.14711711 -5.2983503 33.247124 4291747302
-2.1115947 0.169653 -1.6980677 4279903525
-3.3373497 -5.0252252 36.152557 4278985509
-1.5044483 -1.812984 -20.430119 4279771688
-1.1410594 -0.390387 4.5551076 4279048984
-4.9588943 -4.1761422 23.138544 4279442718
-102.63152 40.547543 -517.62146 4291287525
-379.83344 114.45582 -1156.7089 4279247136
-1.5717428 -3.9514706 14.973662 4279837986
-5.8215694 -1.0885674 -20.979622 4291484390
6.6902752 6.6960282 -165.97369 4279644460
-2.6667128 -4.576201 28.389986 4292142836
-2.1984971 -4.695662 26.162489 4279706403
-1.9955248 -0.36085024 0.87823087 4279245337
-4.9588943 -4.1761422 23.138544 4279442718
4.2007923 0.0090446696 -57.668518 4279708205
-2.1094303 -0.35784438 -0.4267053 4279442718
17.411983 -12.109195 121.32433 4279377437
-3.5072005 0.38534424 -50.418575 4279508511
7.8906717 -0.76735228 -52.433578 4279316264
-0.92062151 -4.0830526 15.54101 4279772193
-26.581432 -13.772318 212.99028 4279052067
-1.9955248 -0.36085024 0.87823087 4279245337
-1.8255478 -0.2950007 1.6812383 4279507995
-3.172291 -1.6140873 -17.069923 4291483874
-2.0339825 -0.31063589 1.062287 4279640098
-2.1464505 -0.36862323 0.022129664 4279639846
-7.7052584 -5.6686378 53.243965 4292339709
-1.3037515 -0.67246497 -42.143192 4279512103
-8.0374937 -5.013515 41.896557 4279250472
-7.1039343 -1.2260902 -16.889486 4279312924
1.3603326 -4.4854608 18.599222 4291287786
-19.341604 -6.9230566 93.552002 4292207850
8.5309715 -7.7403412 58.159733 4291156454
-2.6879714 -0.74629831 7.0996428 4279641889
-2.1526346 -0.21941577 0.48795766 4279772457
1.3511645 -2.275887 -18.308214 4292603903
19.781752 5.1469736 -165.26637 4279711028
2.2464981 -5.0623708 29.819431 4279051296
1.8926089 -5.1950016 28.257063 4279640094
-18.419689 -6.9850078 93.958618 4292404985
-1.9230551 -0.19802183 -3.1088488 4279771687
-2.1234522 -0.36159799 -0.4795084 4279311385
1.6004882 -2.3064582 -18.585171 4293128191
-17.527594 2.3177342 -53.208263 4290432213
14.457274 -8.7650805 58.372364 4291220448
-2.1373732 -0.34880722 -0.046167914 4279508511
-10.498702 0.84224367 -43.616409 4279311135
-1.5763592 -0.23161052 -4.7697148 4280034860
-2.9842834 -4.8924184 33.104218 4279643174
-6.2265091 -4.6295242 32.879681 4292075751
-2.3861065 -0.0077540255 -2.61518 4279377438
-0.81048787 -7.6534734 35.055336 4279574046
0.76627094 -2.0464046 -21.681807 4280231726
-6.953989 -1.2311023 -17.256731 4279049496
-7.1448112 -1.109852 -18.009718 4278918936
-1.9701098 -0.33261481 0.047295343 4291617520
-10.712086 -0.35260767 -24.644958 4289971401
2.560853 0.38881093 -59.413673 4292339703
4.0120897 -5.8637934 37.27121 4279119153
-2.0038953 -0.26841342 0.87782538 4279245080
0.56424618 -4.3611341 18.460939 4290630619
-1.9111117 0.35640424 -3.1046467 4279641117
-0.64065295 -5.32932 34.879211 4279314723
-5.7278719 -0.96206886 -31.365669 4279446046
1.9411209 -1.6913093 -27.955362 4279908150
-7.0936041 -5.53901 47.908932 4279968299
-6.2265091 -4.6295242 32.879681 4292075751
-19.341604 -6.9230566 93.552002 4292207850
-10.626065 0.94486821 -47.428913 4291419111
-49.878578 12.301216 -149.96155 4290169554
-3.9280183 -4.4804287 28.370682 4279706662
6.6872849 7.9554596 -188.60071 4280103981
-0.37632605 -2.1742094 -16.686819 4292603127
-0.42127687 -2.1444936 -17.002504 4292867071
-1.7984633 -0.42484286 1.7951303 4279246619
66.154282 -29.773069 291.01205 4279640863
-9.6842728 10.104687 -194.58405 4291814381
0.76627094 -2.0464046 -21.681807 4280231726
-10.174364 -5.3435555 52.025078 4292208635
-2.1921892 -0.24611285 1.165298 4280101423
-5.8323288 -4.4307823 29.875805 4279512100
-5.8120251 -1.3368924 -17.35338 4279244821
-0.58155584 -1.7383745 -22.367767 4292470524
-3.7420557 -4.860714 33.237724 4278657048
-2.1335742 -0.27709973 0.27515519 4279640611
-2.4132318 -4.6027598 28.416368 4279574815
-2.1322629 -0.32340699 0.56784087 4279770912
-0.9886716 -4.1246023 16.170732 4278853908
-1.6587574 -0.27905175 -3.9006991 4292208631
-2.2078295 -0.22091036 -0.93680495 4278853406
3.5177243 -5.6038485 35.931225 4291550698
-1.9356813 -0.30683467 0.16220245 4278459156
-14.630015 -6.279892 75.713951 4292602618
0.41132429 -4.8538365 25.5438 4291023836
-3.172291 -1.6140873 -17.069923 4291483874
3.5384281 -1.4522349 -34.827549 4292274942
-2.05582 -0.40635693 0.91363668 4279376924
-1.9842343 -0.31815544 0.45181537 4279771940
-6.7126932 -0.040272735 -51.576363 4292075751
-4.7670488 -1.3046753 -39.809998 4279311902
-1.8320346 -0.21065606 1.4715979 4279507744
-0.75555527 -2.9167731 16.045183 4279508768
19.781752 5.1469736 -165.26637 4279711028
-0.76745588 -1.7314682 8.512043 4279507997
-5.5046573 -1.2009 -20.09267 4279377181
1.9282593 -4.9930325 28.664261 4291352293
-1.5044483 -1.812984 -20.430119 4279771688
-2.8678732 -4.6792006 29.948204 4279315488
-6.2943435 -1.1286275 -22.059719 4279376924
-4.1953406 -0.08742284 23.329643 4279706407
-82.246872 159.47021 -2564.9697 4291681514
-25.426937 -10.276609 154.86905 4280231726
-5.0520048 -1.3704941 -20.847004 4279314470
-2.0357895 -0.31318647 0.95934373 4279639326
-6.4505153 4.3724117 -113.43716 4291682795
2.7156208 -0.52154869 -48.365768 4292733180
-6.4407458 -4.355197 28.889214 4280100394
0.44799188 -5.538816 35.693226 4279182880
1.7038027 -2.158787 -20.338799 4292603135
-12.156468 -9.6511602 124.0134 4292798716
2.3172009 -0.32014629 -50.166763 4293062910
-2.4166646 -4.1624918 19.014097 4291880950
-10.133531 0.22189726 -33.349785 4291089374
-4.8924866 -1.5786891 -15.824673 4291089628
-3.0600836 -1.7321203 -11.765716 4292274157
-19.715324 3.5857193 -80.854012 4279441689
-6.3172607 -0.41958016 -38.719891 4291616746
-2.1267791 -0.36444533 -0.024701061 4279639845
-2.0685778 -0.34142584 0.9664132 4279575070
1.5506483 -1.8356885 -24.959663 4278791465
-1.6920291 -0.2865254 4.510797 4278723100
9.6833286 -0.35890231 -64.626213 4280106294
1.5290971 -1.0668945 -38.48793 4279708975
-2.1322629 -0.32340699 0.56784087 4279770912
-2.3807566 -0.1350566 -1.549636 4279180573
-3.8568933 -3.8291843 16.107086 4291878640
-23.295948 -8.9219713 133.29683 4292275199
-16.222185 -6.6544275 82.019615 4279839018
-3.4939709 -1.0353633 7.7654634 4279904560
0.42476282 -1.2166522 -33.586788 4279051553
-1.7300624 -0.45384964 -4.3486309 4279770146
-6.5031805 -0.25640908 -47.143295 4278395153
-8.029851 -0.52307969 -27.107866 4278392851
11513.356 -3552.2859 33559.859 4279378462
-5.3018217 -0.41260344 -31.111187 4291615971
-1.9047118 -0.50348198 1.7624142 4279181346
8.1730938 -9.957304 105.16391 4291286496
-1.9783158 -0.28272402 0.49583042 4280165161
-2.1267791 -0.36444533 -0.024701061 4279639845
5.7293015 -7.2665205 61.021343 4291484649
-16.366074 2.0563195 -50.646378 4278656795
-1.6662284 -0.59256005 2.6472652 4279312158
1.2894776 -2.2084248 -18.377392 4280170033
-7.7052584 -5.6686378 53.243965 4292339709
-0.56186587 -4.4127312 19.227179 4291486188
-1.0122571 -11.224719 124.46279 4292011497
-1.9271013 -0.28484368 -1.9170805 4279771688
-1.9747201 0.23895548 -4.5857196 4279837989
-1.9471827 -0.31371027 1.1920558 4291221732
-3.8568933 -3.8291843 16.107086 4291878640
-3.8378251 -4.1349483 22.404718 4279706663
-0.57689911 -5.2717919 33.420361 4291747820
-1.8465316 -0.43039343 1.7988454 4279508512
1.9615539 -0.92574477 -41.559898 4292931324
-2.086777 -0.36096081 0.65760332 4291879152
-1.8181056 -0.19960119 1.745152 4279639326
-1.8126928 -0.685067 2.6431177 4279377180
1.8911606 -6.7786222 53.482979 4291354086
-2.6375668 -0.043522395 -2.2479293 4279113750
-11.215137 -0.11672522 -26.715933 4290233548
-2.086777 -0.36096081 0.65760332 4291879152
196.34036 71.659691 -1477.8251 4292669437
5.3401523 -6.3734937 43.992241 4291418342
-1.8849542 -0.50800288 1.7946243 4279443742
23.772419 5.5630231 -179.42471 4280231726
12.445055 -11.757155 129.65407 4292207858
5.9942002 5.0402594 -138.19756 4279314724
-1.9396803 -0.35545132 0.049216282 4279770921
-9.3186836 5.8736458 -127.43274 4279118111
14.912029 -8.8008041 58.014652 4291089123
11.144902 -7.6799965 49.637127 4278261267
6.57514 -0.89602572 -47.976082 4292602367
3.0949769 -1.5663798 -32.824333 4278989354
-5.7136912 -0.97236913 -34.682686 4279508508
0.41132429 -4.8538365 25.5438 4291023836
-4.2220078 -3.8952649 17.118752 4279640864
14.401152 -8.6875057 59.537685 4279116571
21.095476 -11.694933 98.161522 4279184158
12.220042 -12.506688 146.65184 4291615970
-4.6354189 -1.7786555 -12.160959 4290958039
-4.0444293 -3.9176207 17.669554 4291879928
-3.3534021 -1.6918322 -24.196922 4291877608
-1.9635108 -0.31147495 1.0457872 4279246364
-3.6480994 -1.3732066 -25.976297 4278987301
-7.4383955 -0.74582309 -24.995926 4291483873
-1.9931 -0.33432838 0.75638193 4279376665
-86.147911 23.598293 -254.05983 4290497738
-11.901472 -8.6431437 106.08267 4292406006
-8.6476564 -5.1175699 45.026093 4292273917
-2.0412939 -0.30182749 0.86201704 4279574303
-1.6662284 -0.59256005 2.6472652 4279312158
-2.1331801 -0.21928917 0.47439244 4279903786
23.772419 5.5630231 -179.42471 4280231726
6.57514 -0.89602572 -47.976082 4292602367
-1.8049736 0.70304352 -4.0167809 4279837476
-3.0682316 -4.0994248 19.075525 4291946228
-2.4044294 -0.71040404 -1.8936675 4283716154
-4.2012792 -4.1611433 22.486477 4279641894
-49.57317 15.490426 -195.77243 4291286753
-2.3384817 -0.34541571 -3.1223686 4279445544
7.1200714 -0.98358971 -48.088928 4292734207
-1.9396803 -0.35545132 0.049216282 4279770921
-6.4098969 -1.5010954 -15.633647 4279376668
-1.5956116 -10.426552 116.0618 4279052319
-1.7749767 -0.50419819 -40.271271 4279314989
-2.1622603 -0.13554475 -1.0947351 4279378209
-2.1288316 -0.27129954 0.50239003 4279640614
-2.1040242 -0.25810847 -0.73332465 4279706148
-4.0576863 -3.8556607 16.30917 4278854159
2.7385454 -4.8395467 21.073126 4279247895
-3.8635907 -5.0406923 37.636883 4279052068
-2.6611087 -4.0370297 17.824007 4292010226
-4.8816895 -1.2108735 -20.063677 4279443742
-3.6374614 -4.6222425 27.612875 4279771683
1.8911606 -6.7786222 53.482979 4291354086
5.7293015 -7.2665205 61.021343 4291484649
11.979399 -8.8434677 72.343185 4291747308
-1.9747201 0.23895548 -4.5857196 4279837989
-10.498702 0.84224367 -43.616409 4279311135
-5.3018217 -0.41260344 -31.111187 4291615971
-19.715324 3.5857193 -80.854012 4279441689
-5.0090833 -1.4014827 -18.049038 4291417821
-1.1136147 -4.1370401 16.545862 4278854424
1.8559659 -1.7879831 -25.701954 4279907904
8.5309715 -7.7403412 58.159733 4291156454
-1.8199309 -3.9755874 20.078461 4291879666
-2.560008 -3.9125524 15.803277 4291944174
17.411983 -12.109195 121.32433 4279377437
-3.9758327 -0.17385627 -6.8869643 4279180314
-6.2265091 -4.6295242 32.879681 4292075751
7.1200714 -0.98358971 -48.088928 4292734207
-10.133531 0.22189726 -33.349785 4291089374
-0.30012286 -1.9877379 -18.984976 4280101941
-2.1700749 -0.31740892 0.34211183 4279639839
1.7038027 -2.158787 -20.338799 4292603135
3.3688526 -0.50106639 -50.377106 4292471545
-4.0265055 -1.804251 -11.205944 4279311129
18.42741 -10.089102 68.743729 4279314716
-2.0941267 -0.37678358 -0.23987868 4279969066
-1.343858 -0.91549921 3.7035756 4279310359
-1.8229101 -0.87078065 4.2960248 4279509022
0.50178719 -1.1754414 -36.117893 4279705891
-2.0575733 -0.36511722 -0.30708081 4278591002
9.3550835 11.906384 -251.16371 4279643433
-2.024446 -0.31659299 0.34595197 4279574309
-1.9145528 -1.6411967 -24.519733 4279508510
-1.8199309 -3.9755874 20.078461 4291879666
-1.9590489 -0.29546541 -1.6211544 4292208889
-2.0603392 -0.31601521 1.0053514 4280033575
-6.1966562 -4.5982323 31.765938 4292601594
-1.9331169 -0.23424996 0.9778139 4279573789
-13.231364 -9.2636089 123.08127 4280231723
-2.3845127 -0.48389685 -44.408981 4292339442
-9.4622269 -0.67868257 -21.143929 4278195216
-2.0813277 -0.67209321 2.5709293 4279837478
-0.60574335 -1.7638282 -23.269867 4292536830
-2.1189141 -0.29113051 0.37738207 4279574568
9.184392 1.6511062 -92.41748 4292274429
5.2659907 -6.4688172 46.43951 4279445282
-1.8126928 -0.685067 2.6431177 4279377180
-2.1595571 -0.33068207 0.25624934 4279116825
0.51030195 -4.7513156 24.226871 4278524698
-2.1595571 -0.33068207 0.25624934 4279116825
-5.7469878 -4.0095558 21.984901 4293127932
6.8919082 -1.1429893 -45.56683 4280430135
-16.99349 -6.8398066 88.577049 4292077048
-0.8368476 -1.761294 -22.695272 4292799741
0.050632387 -5.0649204 32.058979 4288458419
-2.0323181 -0.49325892 2.1577985 4279380776
-2.1040242 -0.25810847 -0.73332465 4279706148
-1.9524511 -0.30362412 0.44934502 4279574306
-3.8780868 -1.665355 -15.085186 4291747306
-2.5983148 -4.0318084 17.674776 4291878901
-12.299437 0.7917031 -40.16872 4290760922
-0.17387556 -2.0225718 -19.056437 4292669946
-3.9763799 -3.8295631 16.147923 4291747050
-1.2508963 -4.4114084 20.615469 4279442973
-2.6398082 -0.2383367 -3.6987903 4279508767
-939.22687 563.1557 -7433.9839 4291682026
-21.415339 4.1413708 -72.796181 4291024096
-2.2573767 -0.91078699 3.7711122 4279443485
-6.9704056 -0.25690916 -47.36702 4278525976
-2.1471026 -0.34430623 -0.045161426 4279508769
-1.6586034 -0.21509399 2.1588635 4279179799
3.2460289 -4.9084139 20.704838 4279442461
-1.9813355 -0.30169088 0.27155438 4279574305
1.4058163 -2.2800217 -17.879301 4280497465
-1.9867989 -0.27509129 0.79097497 4279771169
-1.8087049 -0.30150461 1.587847 4279245080
8.6779394 -6.8441515 40.444176 4291222237
-1.9331169 -0.23424996 0.9778139 4279573789
70.609879 -25.260521 222.67839 4278721557
7.4839921 -9.2772322 92.904099 4292273639
-2.2573767 -0.91078699 3.7711122 4279443485
-3.0833118 -3.7459552 13.945903 4292012794
-2.1773751 -0.28074813 0.31590077 4279640360
3.1634319 -5.0530748 25.581161 4279706400
-6.3000751 -1.6739758 -11.453046 4279114003
-1.0122571 -11.224719 124.46279 4292011497
-1.9861866 -0.37687004 -0.10219575 4279443749
3.9314911 -5.2927861 26.143677 4278524693
-2.383678 -3.8813915 15.397223 4279773731
-1.9145528 -1.6411967 -24.519733 4279508510
3.0963504 -5.4445357 32.228939 4279640865
389.71582 -123.172 1124.5233 4289708224
-49.878578 12.301216 -149.96155 4290169554
-2.1044188 -0.34961826 0.11485691 4279442459
1.4879916 -1.7029612 -25.98118 4292801023
-2.0112281 0.059333779 -48.989937 4279052836
133.08041 45.382812 -990.79181 4292405502
-2.041167 -0.27587831 0.83090186 4291813868
-6.7094111 -1.325698 -16.09388 4278721047
-14.027996 1.1996739 -40.576752 4279245334
0.50178719 -1.1754414 -36.117893 4279705891
-2.8394678 -8.6114931 92.27504 4292733680
-4.1776929 -4.3355999 25.087938 4279772201
-2.1790318 -0.34585431 0.11985087 4279180056
-3.4118783 -1.8448111 -13.044011 4291942625
-2.1567476 -0.31403863 0.52231461 4291220965
-0.50606287 1.3808069 -13.915013 4279706145
-0.46778515 -5.3835902 36.425529 4292274418
0.20216855 -6.0154772 42.676315 4279511591
-5.7278719 -0.96206886 -31.365669 4279446046
-12.028374 -5.2637525 53.78204 4280170289
-3.049144 -1.4602009 -12.994837 4291550182
1.0813444 -4.4118199 17.746054 4279705888
19.15427 -10.877797 87.22245 4291156195
-2.0065598 -0.35874954 -0.096531123 4279377957
-1.9689504 -0.53332859 1.6461737 4279902756
62.702076 -23.417618 195.88557 4290431175
31.307928 -22.667419 277.04037 4279446308
-4.8924866 -1.5786891 -15.824673 4291089628
-7.0309877 -1.1292107 -18.353165 4278919708
-9.6277075 -0.58417606 -22.810877 4290760400
3.6476889 -1.4073018 -33.797684 4280034860
-6.6180687 -1.3599752 -15.488556 4291482591
-2.0938189 -0.26429838 0.43478677 4279836452
-4.970294 -4.084918 20.850197 4279771168
-0.79470229 -4.9962773 30.997101 4279314728
-3.425509 -1.4875363 -22.965601 4279574560
3.6476889 -1.4073018 -33.797684 4280034860
2.9459491 -4.8501253 20.527515 4291353837
-4.8001747 6.207417 -31.55512 4279573790
-21.879749 -12.369448 182.36647 4292274428
-9.4583683 -0.036890883 -31.76746 4279442970
-939.22687 563.1557 -7433.9839 4291682026
2.9459491 -4.8501253 20.527515 4291353837
-11.047276 -7.7142777 87.844131 4279642410
-2.0075262 -0.23544094 0.67016613 4285558880
3.2533314 -5.15172 27.178154 4291551209
-11.841985 1.7028499 -57.167519 4279573532
-2.041167 -0.27587831 0.83090186 4291813868
-3.2481267 -1.8439437 -12.574407 4291745502
-2.5963573 0.29810303 -2.1938713 4279836959
-2.0461752 -62.043556 696.34613 4279508252
-9.0369883 -7.1084208 79.074829 4292471796
-2.1271839 -0.26650289 0.47423711 4279771687
-6.933444 -1.0651125 -20.127113 4279507482
0.14711711 -5.2983503 33.247124 4291747302
-2.097995 -0.20302391 -0.90285015 4291616491
-2.2781892 -0.22693653 -1.1653249 4279114776
-8.7836914 -0.027900063 -33.347301 4279444006
104.49428 -36.655334 321.72617 4278523923
-5.8400855 -3.9957273 21.613794 4279968809
-12433.354 3958.5352 -37264.789 4290431957
3.5177243 -5.6038485 35.931225 4291550698
-3.0600836 -1.7321203 -11.765716 4292274157
1.9282593 -4.9930325 28.664261 4291352293
-1.9524511 -0.30362412 0.44934502 4279574306
4.2827244 6.8838468 -166.85297 4279051812
-2.0412939 -0.30182749 0.86201704 4279574303
-3.12589 -1.519125 -23.504929 4279378468
-1.8849542 -0.50800288 1.7946243 4279443742
-999.70087 424.16003 -4926.5552 4279444773
-3.6369781 -1.9037908 -11.990117 4279574047
-15.801621 1.7406086 -47.713692 4290694100
-8.5459547 0.41441527 -47.952385 4279246107
-4.970294 -4.084918 20.850197 4279771168
1.8996471 -2.2978542 -19.463953 4278524446
-2.1452508 -0.24736661 0.88813621 4280035631
-2.097995 -0.20302391 -0.90285015 4291616491
11.129086 -11.195552 109.63963 4279574556
-20.77038 3.7231014 -68.328819 4290629847
-0.79470229 -4.9962773 30.997101 4279314728
-5.9204898 -4.1899962 24.456593 4291551223
-3.049144 -1.4602009 -12.994837 4291550182
-2.4412096 0.23850986 -3.222245 4279639583
-4.6354189 -1.7786555 -12.160959 4290958039
-2.1319656 -0.348869 0.21265395 4279639585
-2.0580378 -0.21767773 -0.77377933 4278920231
-2.0975733 -0.27506727 -0.52089798 4291485416
-1.0303048 -4.1190968 16.518332 4292405240
-3.8927643 -4.2340651 23.82279 4292601593
-7.0870099 -1.2341971 -17.263544 4278460180
-2.0580378 -0.21767773 -0.77377933 4278920231
4401.2231 -1833.2281 20516.521 4291418342
-2.2675819 -0.35820881 -0.95184034 4290826461
2.7315762 -0.68486291 -44.482903 4279381549
-8.5485477 -0.85671645 -20.314293 4290233807
-2.0165982 -0.27128205 0.61114222 4291878890
-6.7858386 -1.2247227 -17.168669 4290563282
-2.7535479 -1.2471248 -22.870594 4278525464
-4.647675 -1.7198544 -13.045745 4279182114
-2.0678022 -0.31118205 0.89306229 4291419880
-3.3897851 -1.6471878 -30.239004 4291747050
-999.70087 424.16003 -4926.5552 4279444773
-2.0262663 -0.30884328 0.95345938 4291681517
-2.2675819 -0.35820881 -0.95184034 4290826461
-17.923243 2.7744632 -59.753651 4290760919
-3.5356765 -1.5956483 -27.964514 4292076781
2.6852775 0.022185065 -55.718288 4279970353
11513.356 -3552.2859 33559.859 4279378462
-0.30012286 -1.9877379 -18.984976 4280101941
-0.46778515 -5.3835902 36.425529 4292274418
10.751369 -7.5338869 47.305641 4291286756
-0.24170654 -2.0433571 -18.409855 4292405503
-2.0975733 -0.27506727 -0.52089798 4291485416
-3.6918926 -4.1729231 22.26144 4292142067
-2.0387366 -0.12506603 -2.5116761 4279902504
-2.3253613 -1.6408505 11.846194 4279903785
18.904739 -10.323526 82.096352 4279376673
-6.6180687 -1.3599752 -15.488556 4291482591
-2.0594923 -0.42214423 -0.62777102 4280033574
-2.0199525 -0.33860826 -0.22138667 4279639593
-2.8394678 -8.6114931 92.27504 4292733680
-1.9930999 -0.25923347 0.00977821 4290893022
-19.070442 -7.4142575 103.52785 4280366388
-2.074755 -0.38014859 1.223704 4279902503
-2.2731273 -0.31770751 -0.42086515 4279442716
-3.0833118 -3.7459552 13.945903 4292012794
-0.2003472 -2.3300245 8.0567408 4279639325
-7.0957193 -0.74965709 -24.772665 4279311645
0.51140076 -4.525383 20.659748 4279183390
-2.0657244 -0.38098291 -0.50282067 4279704612
-3.0291364 -1.3327825 -24.880852 4279052835
1.5638202 -2.2408597 -18.777851 4292997631
-4.1018739 -3.9598932 18.333893 4279968803
-1.9819207 -0.27014133 0.64138591 4279507994
-458.71625 179.13335 -2046.9507 4279443745
2.8905463 -5.0114436 23.94692 4278986011
-8.3891439 -6.5392494 68.956345 4292273907
0.17108263 -4.1372499 15.126287 4279381029
-12.219501 -5.4698701 57.753765 4279513130
7.7761002 -0.94230688 -50.776928 4292537340
-14.550711 3.0602348 -75.348183 4278590999
-3.5539086 -1.8493699 -13.283072 4279640095
-0.58141756 0.38211221 -7.5595217 4280034605
2.5250604 -3.4627023 14.942792 4279903527
4.4166141 -5.9718499 36.667454 4279446304
-7.3000588 0.048881833 -49.149998 4279574560
-4.5177598 -1.7692541 -12.367799 4278984735
-4.8086395 -1.4459643 -17.408382 4291419102
-14.027996 1.1996739 -40.576752 4279245334
-2.3132749 -0.19749708 -1.8140606 4279772194
-1.973762 -0.30753997 0.44212481 4279640353
-0.17387556 -2.0225718 -19.056437 4292669946
-3.66875 -4.5969763 29.831024 4279643689
-1.9686087 -0.36096296 0.088988677 4279574562
-2.0165982 -0.27128205 0.61114222 4291878890
-2.281311 -0.34300935 -0.58069313 4290826714
-1.868506 -0.21767995 1.3538924 4291221214
-6.9132261 -1.1798553 -17.915043 4278656537
-4.0348668 -3.8656039 16.60008 4279183651
-2.1471992 -0.3746379 0.041825105 4291155422
-3.0829132 0.468375 -4.2434969 4279378203
-2.130424 -0.30869514 0.54740894 4279573788
-0.034234431 -2.1479487 -18.796143 4292735743
-9.1961565 -0.43523973 -25.470474 4278981394
-2.245661 -0.24060403 -0.30924031 4279705631
-2.7595978 -3.945297 16.914141 4279444255
-3.8378251 -4.1349483 22.404718 4279706663
29.213966 -14.831844 146.2645 4289444803
-2.0678022 -0.31118205 0.89306229 4291419880
-1.6230209 -4.2923498 20.726944 4279706916
-1.973762 -0.30753997 0.44212481 4279640353
-1.2771291 0.58886546 -8.3640347 4292339961
1.8559659 -1.7879831 -25.701954 4279907904
-1.5473256 -4.6361604 25.620689 4279903267
-5.3523355 -1.5972935 -13.629391 4290958299
174.70132 -65.32708 630.96222 4279179030
-2.0242023 -0.30441076 0.94816828 4279051808
-3.6998577 -4.4878588 28.332506 4292142838
2.7937307 -4.916048 22.371847 4291484393
-2.0065598 -0.35874954 -0.096531123 4279377957
-3.8080118 -4.0566502 20.679504 4279836711
-0.99495369 -4.9119048 29.651245 4292076533
2.2566099 2.8075039 -101.33625 4291879404
10.576648 -0.36818883 -65.638435 4292865534
-0.6072585 -1.7084333 -23.5345 4292996606
-0.94637644 -2.1292968 11.09042 4291549928
-0.7259571 -4.3774095 18.526064 4279771425
10.301056 -0.12029204 -66.874855 4292603903
2.5498688 -4.7977962 21.911858 4291683311
-2.1115947 0.169653 -1.6980677 4279903525
0.1564773 -2.0356696 -19.250771 4292799738
-4.5666995 -4.3885689 25.890266 4279316265
-5.8262792 -5.7593408 53.603374 4292406782
-9.8585672 9.2922029 -178.82541 4278196234
0.75034511 -4.709856 23.384161 4290300368
-2.2191653 -0.4093802 -0.78415233 4291154654
-2.0143754 -0.2809307 0.50335419 4278197272
-7.6083045 -4.9248829 39.895382 4292010228
-3.8927643 -4.2340651 23.82279 4292601593
-1.7886978 -4.5081177 23.808861 4279838501
3.4175117 -5.5324373 34.144974 4291878892
-2.3808618 -4.7191687 27.537657 4291880177
-1.9816229 -0.37566033 0.043980896 4292011252
23.393944 -11.684582 83.617531 4290629595
-2.104099 -0.31434995 0.51089323 4291353570
-2.01103 -0.34935066 1.0263723 4279837735
1.9411209 -1.6913093 -27.955362 4279908150
-3.0283601 -4.8145747 31.616741 4292273398
9.4545431 -7.1076045 43.302315 4278195211
1.8996471 -2.2978542 -19.463953 4278524446
-8.1193876 -4.5792112 35.049591 4279837219
-5.9126158 -4.5665417 31.444807 4291683059
-12.028374 -5.2637525 53.78204 4280170289
-5.8267241 -1.7843305 -10.819633 4290561227
-7.8919516 -0.53101742 -27.19805 4291812063
-1.8941483 -0.23826993 1.006886 4279048212
-6.1115623 -4.2989621 26.776716 4292405247
-2.0739276 -0.3952494 -0.26126859 4280165671
-14.206624 1.4038637 -45.713837 4290564305
-2.6655319 -0.43058699 3.1859751 4280100654
-2.116993 -0.25928044 0.21769974 4279573789
3.2533314 -5.15172 27.178154 4291551209
-2.1538608 -0.40531936 -0.014113292 4279377179
-1.6131227 -9.8446789 104.16785 4292142564
-5.2564569 -4.4450169 28.984365 4291813618
2.7827415 -4.7517276 18.415462 4279574817
-4.1872401 -3.8556447 16.458429 4292405245
-2.104099 -0.31434995 0.51089323 4291353570
-6.5660014 -1.376789 -15.590586 4278523925
-4.7980919 -3.7437019 16.794886 4279705122
-2.560008 -3.9125524 15.803277 4291944174
-2.1453986 -0.33370239 0.13939747 4279969321
-2.5216398 -3.9327178 16.100187 4278854168
-11.656446 7.8881745 -168.47371 4279118111
-14.630015 -6.279892 75.713951 4292602618
8.6832132 -6.7303557 41.106331 4278788379
11.776074 0.029433098 -71.766602 4280233522
-2.0109963 -0.32459435 0.71416813 4291879407
-9.6277075 -0.58417606 -22.810877 4290760400
2.5376046 -4.5289698 15.491871 4280103722
-1.5251334 -1.9325888 -19.346453 4292143099
11.979399 -8.8434677 72.343185 4291747308
-7.6083045 -4.9248829 39.895382 4292010228
-2.2289402 -0.18008959 1.7248527 4280034344
0.14711711 -5.2983503 33.247124 4291747302
-3.8635907 -5.0406923 37.636883 4279052068
0.83037561 -4.303453 16.552574 4291944936
-1.6608958 -0.23851165 2.1441762 4290892506
-5.3523355 -1.5972935 -13.629391 4290958299
12.332586 -7.8893504 49.21751 4290826462
-4.0772839 -3.9743602 18.955791 4291156458
61.156311 -27.470648 278.47711 4279641895
29.968369 -12.959895 100.69952 4289972178
-2.1827583 -0.2849358 0.39003515 4279705635
-13.071774 -5.8011332 63.804108 4279842870
-1.7480812 -4.3422036 21.185694 4292141043
-3.297461 -5.2774959 39.009232 4292602617
0.64820111 -4.1518688 15.495716 4291419613
21.751009 -21.723804 263.53476 4279705891
-0.29917473 -4.3789654 19.9097 4291682032
-8.380579 4.3107696 -111.81168 4291813101
-5.9411106 -4.0338831 22.804636 4292274174
-3.1649063 1.7083658 -10.26774 4291419112
-1.9324248 -4.5421824 24.127518 4292733946
-1.9816229 -0.37566033 0.043980896 4292011252
1.923782 -2.1753988 -20.850613 4292143610
-72.735985 18.711288 -209.28181 4279115544
0.50829703 -4.6400256 22.018093 4290761181
-2.1868651 -0.23877311 -0.09624701 4279770401
3.5293686 -5.426425 31.549604 4279380253
-2.7007172 -3.8937216 15.810929 4292601585
-2.0109963 -0.32459435 0.71416813 4291879407
-3.644012 -1.5443168 -27.774054 4292274668
-2.555455 -0.078989372 -1.4354631 4279245592
-4.1960311 -3.8419445 16.125788 4278988319
-28.252996 5.8754897 -85.878441 4290431703
-3.6918926 -4.1729231 22.26144 4292142067
-0.21092923 -2.0664117 -17.803036 4279121466
-1.0483649 -1.7452798 -22.356117 4279836716
4.2703781 -5.933053 38.856609 4291682285
-5.538106 -3.9825473 21.858334 4292274686
-2.7488079 -13.675134 153.24695 4279644198
-1.6678488 -0.31195751 1.8487208 4279179286
-1.8092006 0.26099122 -3.961448 4279575077
-11.537664 -0.13606088 -26.002184 4279179285
-76.201859 20.153788 -216.48257 4290563028
0.42476282 -1.2166522 -33.586788 4279051553
-2.3756762 -8.2233305 83.164131 4292601324
-2.0785336 -0.21660124 0.09267994 4279838249
-10.359776 -0.38166815 -24.54652 4290759376
-1.989036 -0.22928697 0.54865438 4279640097
-2.5329483 -0.26417077 -1.6915463 4279310622
-552562.88 173962.91 -1673890.8 4290432469
8.555398 -6.4921288 34.828621 4290366422
61.207821 -22.465952 188.08984 4278983189
-3.66875 -4.5969763 29.831024 4279643689
-6.5463982 -1.5892574 -12.073572 4278984980
2.3769507 -4.5093827 15.740173 4279511840
-1.9582816 -0.37538567 -0.28843784 4292011771
1.9684885 -2.2589703 -19.78669 4292274175
-1.1438911 -4.0229311 15.499397 4279705638
-2.0461752 -62.043556 696.34613 4279508252
-1.9513414 -0.39303163 1.4915103 4291484904
-3.3635237 -4.5287433 31.448519 4291880691
-2.2693353 -0.31556594 -0.69142067 4279576093
0.55185288 -4.2288589 16.419695 4291285479
-2.1104949 -0.22832511 0.58045977 4279639838
-25.450922 7.9586034 -133.15764 4278987550
-2.1248097 -0.25602961 0.51130754 4291945460
3.2997761 -5.6632638 36.242004 4291221474
-2.1311893 -0.34756529 0.23370211 4290892763
-6.4175868 -1.6232889 -11.901459 4290232260
-6.4419832 10.600124 -50.318291 4291090916
3.5999439 -5.2453694 26.138847 4291484641
-2.1600771 -0.28881294 0.33606684 4291682031
-5.8134651 -0.85738575 -33.295601 4292075753
-6.4178023 -1.423613 -15.114474 4290891474
-3.5562222 -3.9318969 16.030174 4279770398
-4.1996922 -3.9770119 18.349089 4291879415
-64.334709 15.655154 -171.12808 4279246104
-2.1626379 -0.35475147 -0.4308883 4279051811
10.576648 -0.36818883 -65.638435 4292865534
2.7827415 -4.7517276 18.415462 4279574817
-2.0180969 -2.0315852 -14.889108 4291812589
-2.1297712 -0.31136322 0.10016523 4279574561
-85.529716 30.078054 -353.37225 4279313696
-1.9629439 -0.26065841 0.11030269 4279442716
-8.3891439 -6.5392494 68.956345 4292273907
-1.9513414 -0.39303163 1.4915103 4291484904
-12433.354 3958.5352 -37264.789 4290431957
1.738732 -4.4953771 19.42226 4291813620
-2.059195 -0.37255421 -0.4713667 4292076788
-3.4735255 -1.7194096 -14.226995 4291615459
-2.2743251 -0.33547762 -0.62979019 4290300373
0.38204676 -4.615694 22.032694 4290958559
-3.2958512 -1.7293664 -14.441248 4291748835
11.776074 0.029433098 -71.766602 4280233522
-20.179029 3.210501 -65.2463 4290563028
-0.54611844 -2.1716127 -16.164362 4280302644
0.50829703 -4.6400256 22.018093 4290761181
15.493977 3.5019598 -132.40334 4293127678
1.8516101 -1.8344021 -26.290731 4292338933
-2.7752583 -3.8472352 15.550467 4279705894
-6.6315436 0.16211563 -53.217781 4278788382
-7.637538 -0.77315456 -23.894016 4279442459
-1.6678488 -0.31195751 1.8487208 4279179286
3.0097377 -4.9089346 21.813736 4292470261
-4.4761772 -1.7946608 -11.787758 4290892506
-2.1244183 -0.32206884 0.44100812 4278722339
-2.1755431 0.67769051 -14.591767 4279575075
2.0801611 -0.51259691 -46.975887 4279578669
-2.1700578 -0.22083484 0.52103442 4279706663
-6.3664412 -4.6341004 32.993408 4279511845
4.6873751 -6.3091898 44.199192 4291945196
-5.9950323 -1.7298033 -11.325097 4290889932
-1.9476852 -0.13536562 -1.4237685 4279576871
-5.0907602 -3.9996419 20.487446 4292274943
-78.859322 20.308971 -216.62735 4290495956
-7.7333479 -6.154367 60.699127 4279707176
-31.251022 10.537401 -160.60727 4291354087
0.5964644 -4.1555657 15.089185 4279509023
-5.1095829 -1.2750514 -20.60581 4291683044
-2.0973508 -0.33656228 -0.52389473 4291944428
2.8874013 -4.8011999 19.296993 4290959333
-2.1076539 -0.2769843 0.59752238 4291484392
-3.5726359 -1.7350894 -13.723413 4291813613
-6.4528923 -1.439983 -14.746378 4279312155
-5.1478505 -1.6568005 -13.222991 4279312412
3.4278791 -4.8762169 18.581583 4279903269
-2.1802955 -0.23867941 0.47359997 4279640098
4.7824683 -6.2131891 43.392376 4278788127
0.2324257 -4.5882907 21.477783 4290826704
-2.0123131 -0.2673457 0.35663557 4291156192
2.2496333 -4.522891 16.436956 4279443742
0.51012665 -5.7206016 39.278938 4279578404
-3.3635237 -4.5287433 31.448519 4291880691
-14.550867 1.4224374 -45.121948 4290892764
-10.359776 -0.38166815 -24.54652 4290759376
-2.0584316 -0.12002398 -1.7268053 4279575074
-3.3635237 -4.5287433 31.448519 4291880691
203.51395 -66.734238 588.0155 4290430419
-2.4867444 -3.9871604 16.897299 4291615470
-6.1198988 -4.1890631 25.018394 4292734973
-9.0369883 -7.1084208 79.074829 4292471796
-9.3223896 -0.69649529 -21.493618 4290234057
-552562.88 173962.91 -1673890.8 4290432469
-3.661567 -5.5171266 42.479572 4279837475
-1.954245 -0.31114358 -0.018496931 4279377950
-5.7469878 -4.0095558 21.984901 4293127932
-2.2549884 -4.1583776 19.79718 4291880694
-4.8108592 -1.786298 -11.943116 4291680476
-6.3119907 -1.585119 -11.94056 4279179028
-6.1093144 -4.0716166 23.846895 4279183649
-3.3635237 -4.5287433 31.448519 4291880691
-0.57079989 -2.8752661 11.730425 4291420138
-3.8378251 -4.1349483 22.404718 4279706663
-2.0514541 -0.31914684 -0.52781856 4279446054
-2.0973508 -0.33656228 -0.52389473 4291944428
-7.1629272 2.1630151 -80.518677 4279706146
-16.524508 2.2039182 -53.444733 4290367179
-2.0223641 -0.36609927 -0.12828571 4291617520
-6.5718608 -5.9874539 58.460651 4279969579
-19.070442 -7.4142575 103.52785 4280366388
-2.1077778 -0.30466476 0.35611883 4279968803
-13.151655 -5.7119174 62.926041 4292273652
-5.6041226 -1.8015698 -10.71209 4279181077
-4.1951838 -4.240325 23.852934 4279184942
5.2490492 -5.1010432 21.256771 4279706659
62.702076 -23.417618 195.88557 4290431175
-2.0553298 -0.32902351 1.1443329 4292142836
-1.9389219 -0.25378013 -0.14312652 4291419886
-10.375922 -8.3904266 97.523346 4279314214
-2.5216398 -3.9327178 16.100187 4278854168
-2.0391717 -0.30897629 0.87644345 4291682027
-25.450922 7.9586034 -133.15764 4278987550
2.5376046 -4.5289698 15.491871 4280103722
-2.1538608 -0.40531936 -0.014113292 4279377179
-9.3223896 -0.69649529 -21.493618 4290234057
-1.928571 -4.3714714 21.939466 4279512353
-1.6678488 -0.31195751 1.8487208 4279179286
3.5999439 -5.2453694 26.138847 4291484641
-1.9850333 -0.32181683 0.11973517 4291813360
-9.7530518 -0.52905941 -22.733814 4279246363
5.4958696 -1.0414214 -43.110699 4280363310
-2.6341949 -0.11474165 3.7620716 4280231729
-6.3772268 -1.3779304 -15.616449 4291613920
-4.2259436 -3.9934778 18.318468 4291484398
-32.895023 12.392761 -214.96678 4279574560
-9.595645 -0.71480089 -20.582624 4279310358
-1.9190817 -0.4184044 -0.14837311 4284836185
-2.0826659 -0.29900962 0.75140965 4290827743
-4.4214177 -3.3685188 11.695508 4294960069
6.3844113 -5.4060845 23.659546 4289905871
1.9684885 -2.2589703 -19.78669 4292274175
-2.116993 -0.25928044 0.21769974 4279573789
-3.8208289 -4.8315568 34.032265 4292471798
-2.0826659 -0.29900962 0.75140965 4290827743
12.220042 -12.506688 146.65184 4291615970
-21.415339 4.1413708 -72.796181 4291024096
-1.9859483 -0.2362399 0.63022363 4279311384
-3.8628902 -4.3161583 24.95636 4280034860
102.46983 -35.233955 309.07266 4290825429
-6.4144754 -4.1116238 24.655632 4280165671
-1.2466469 -4.1758156 17.886532 4279641381
-0.85156685 0.18008439 -8.7286158 4292143354
-2.1262093 -0.32638177 0.57943857 4291419114
-7.0553503 -4.8784537 38.033295 4292536827
0.42058033 -1.9066994 11.256367 4279051295
-2.7552476 -3.9886014 16.754877 4292404215
0.51012665 -5.7206016 39.278938 4279578404
4.0120897 -5.8637934 37.27121 4279119153
-1.9648952 -0.30511522 -1.9929191 4279838766
-6.7611256 -1.2663616 -16.076632 4291219671
-2.8507345 -3.9985518 17.431772 4291550440
-6.2177935 -1.5744054 -12.92099 4290694098
-7.3923168 -1.0382121 -12.038709 4288787637
-2.0663753 -0.36291769 -0.4254103 4292142838
-1.7749767 -0.50419819 -40.271271 4279314989
-5.9709516 -1.687435 -11.783536 4279114776
-5.0284514 -1.6830983 -13.224398 4291549919
-4.1018739 -3.9598932 18.333893 4279968803
-3.4786797 -1.7069238 -13.493503 4279248163
55.601536 -20.738724 168.8241 4279442970
-2.0589664 -0.36954176 -0.43255782 4292208375
-1.9241499 -0.29423606 0.14289986 4291221480
-0.54611844 -2.1716127 -16.164362 4280302644
-3.4141192 -4.8076086 31.746174 4292208117
-1.9510999 -0.33019704 0.4315536 4291814130
-17.973246 4.7097306 -94.069595 4278919706
6.7374411 -19.702066 79.402901 4279376156
-7.7161012 -5.1793985 42.584332 4280034343
-3.5726359 -1.7350894 -13.723413 4291813613
-6.3772268 -1.3779304 -15.616449 4291613920
5.7237024 -5.2096429 21.828962 4289575623
10.396248 -7.4745474 47.0023 4291483880
2.8905463 -5.0114436 23.94692 4278986011
-10.270156 -0.48966172 -22.66539 4290496199
76.106003 -26.23584 216.11229 4279311643
0.27391291 -4.5260224 20.799091 4279248665
-1.3197913 -1.1765851 5.2144861 4291484649
-18.586426 2.1307671 -47.143951 4278981136
-2.166796 -0.33037665 0.19169569 4279446307
-2.1096761 -0.19091639 0.53420269 4284901458
-2.1569059 -0.56772357 2.4503591 4292143351
-2.1766949 -0.31681854 -0.46729311 4291354342
-2.0274122 -2.0883541 -14.676307 4279712311
-7.5251136 -1.1230464 -18.297604 4278986008
7.0311136 -8.3941326 79.790916 4279574300
-6.8999057 2.5256538 -86.064926 4291156194
-2.1565533 -0.81356078 -40.657093 4292405489
-2.0435076 0.07429862 -1.9866753 4291353832
-6.0321651 -1.7347598 -10.817431 4290694094
-1.9307393 -0.35650903 -0.6121347 4292866046
-2.1481955 -0.27021798 0.13288692 4291814386
-1.7651551 -0.63757825 2.8812747 4279577635
-3.4381015 -1.8540953 -12.450713 4279508257
-2.0695558 -0.36886346 -0.35827717 4279770405
-2.8379576 0.20823635 -4.8625908 4279507483
89.773125 -42.073559 448.28387 4291550182
0.55185288 -4.2288589 16.419695 4291285479
