# .PCD v0.7 - Point Cloud Data file format
VERSION 0.7
FIELDS x y z
SIZE 4 4 4
TYPE F F F
COUNT 1 1 1
WIDTH 201
HEIGHT 1
VIEWPOINT 0 0 0 1 0 0 0
POINTS 201
DATA ascii
-4.2405902e+12 5.0669294e+10 -2.5112313e-11
1.273538 -2.7203441 -0.014805998
-4.1352683e-05 9.4229685e+28 4.0231316e+30
1.2656213 -2.7201862 -0.014918765
1.0825204e+11 0.012974339 1.6533008e-24
-1.3968288 -2.7115297 -0.015722958
-1.4796864e+12 -2.3072487e-37 6.400009e-32
-1.4033996 -2.7112677 -0.016171541
1.2794512e-36 3.5658084e+24 7.6496714e+17
-0.96266288 -2.7169464 -0.017967569
15887263 -2.195353e+29 -5.6831308e+10
-1.3971535 -2.7115166 -0.015724258
6.3568786e+28 -6.9091226e-29 8.3951941e+32
1.2601926 -2.720078 -0.014762585
1.0915074e+15 2.7618563e-26 2.2795118e+16
1.3371314 -2.7216117 -0.01472425
-1.3595932e-33 7.9433694e-24 6.6638748e+24
1.1606448 -2.7189844 -0.014841496
1.6786282e-24 2.4185479e-37 -6.7911637e+26
-2.3663411 -0.81955016 -0.0094079021
2.7855662e-10 -0.00030730671 1.8414958e+33
1.2958142 -2.720788 -0.014023855
-2.6139413e-33 -3.9390324e+33 1.7763551e-25
1.0675839 -2.7183428 -0.014841739
-5.6164844e+19 -1.5128484e+09 -2.1845359e+37
-2.0609882 -2.5190158 -0.022368353
7.9362412e+09 1.1667659e+28 -7.0152328e-37
1.3060372 -2.7209918 -0.015130113
-122.02713 -4.7435209e-35 5.8781434e+10
-1.1542755 -2.7158456 -0.01506924
-9.6217212e-09 -1.0293436e+17 -1.9714211e-16
-2.2358251 -2.3149886 -0.014815929
5.2198362e-38 -1.0028105e+30 31266.871
-1.3397311 -2.7131028 -0.017729731
9.797197e-28 9.8922853e-31 -2.9953299e-33
1.3054466 -2.7209802 -0.014351733
2.0579957e-15 7.276257 -2.8508246e+13
1.334837 -2.721566 -0.014970175
2.667557e-36 -4.2160193e-35 nan
1.1438859 -2.7188172 -0.016813459
1.4675925e+16 1.4276633e-21 -5.8465647e+19
-2.3651235 -1.3281622 -0.010685354
-5.3675554e-12 -2.1770084e-28 -24121.352
-2.2239218 -2.330174 -0.018681891
-2.7745614e+23 2250558.5 -2.4255903e-07
-2.3538888 -1.7523557 -0.010854953
nan -2.7486506e-36 1.0801644e-20
-1.5835478 -2.7007551 -0.020715868
-0.18254204 -2.1495226e-14 8.3685879e+19
-1.475529 -2.7083921 -0.017109904
6.1328906e-09 -7.7070577e+16 18937.523
-2.0002778 -2.5577407 -0.02230579
1.097363e-30 -3.4434573e-09 -4.6689202e+28
-1.4421459 -2.709723 -0.017579135
-5.5085863e+21 7.3053422 1.3827315e+23
-2.3095756 -2.039803 -0.018189449
-1.1495553e+24 -1.8675872e-34 -3.5281798e-06
1.1597939 -2.7189758 -0.014843288
3.0938537e-30 -4.2831576e-16 -9.9743877e+36
-0.91536742 -2.7171268 -0.015727773
-6.2896262e+34 50096584 -5.9738803e+22
-2.3657119 -1.214108 -0.0098920157
-2.2448952e+38 2.7323525e-35 -6.3969859e-36
1.1805937 -2.7191832 -0.014243256
1.8230317e+12 -1.0703678e-15 -2.2530972e+29
-2.3663268 -0.85677922 -0.0092961872
-0.0082858447 10050.469 4.5676797e+18
-2.3615031 -1.5735822 -0.010437668
1399.7267 -4.9429223e+34 7.9748996e+36
1.2675415 -2.7202244 -0.014235449
-4.0239661e-18 -5.7049288e+18 -3.9380955e-15
-0.88836241 -2.7171941 -0.017378926
5.6145669e+20 -8.8338136e+14 1.0962204e+18
-1.9766475 -2.5728135 -0.022747638
8.3278532 -138.75883 7.6864615e-15
-2.3655739 -1.2546235 -0.0072805323
-3.2693236e-30 1.0827453e+36 -8.445514e-29
1.1647924 -2.7190256 -0.015069193
15757032 -5.6474276e+16 26.259081
1.287467 -2.7206216 -0.014584973
-0.062293217 -80262192 -4.6219151e+26
-2.3625355 -1.5314382 -0.010329719
1.7033029e-22 -4005871 -1.414247e-23
1.1875017 -2.7192519 -0.017582107
-1.6826737e-16 4.1630046e-36 2.1810537e+23
1.2881866 -2.7206361 -0.015166533
1.461387e-33 1.4820194e+14 -1.771863e-38
-2.3626049 -1.5286129 -0.0099686338
1.7332019e+21 -2.3492874e-18 0.48266944
1.1649874 -2.7190275 -0.015068727
2.0623742e-25 24.415234 -4.6192443e-29
1.3010116 -2.7208917 -0.013843521
1.1088619e+30 -0.0036332526 -0.0002193128
-2.0002725 -2.557744 -0.022305926
-2.1696907e+08 -3.7015172e+17 -2.0429579e-19
1.1605912 -2.7189837 -0.014424333
1.2106808e-36 2.4195201e+11 -2.0360407e+26
1.3290248 -2.7214501 -0.015412915
1.28801e-20 4.6065002e+16 -3.8073776e-28
-2.3661752 -1.0007701 -0.010056607
-2.053588e-16 6.9769978e+08 0.4020381
1.3228647 -2.7213273 -0.012980867
4.8766258e+11 -2.6761899e-37 2.53235e-11
-2.3212104 -1.9804325 -0.018517211
7.3992116e-24 1.0148748e+21 -4.3169243e+18
-2.3644445 -1.4070251 -0.0094980877
-1.6670729e+12 8.8958459e+29 3.2479371e+14
-2.3657563 -1.1996367 -0.01027855
0.85512334 0.0050070798 957106.94
-2.3637552 -1.4632983 -0.010827322
-97862.422 -1.2539296 7.7597835e+11
-2.3624177 -1.5362459 -0.010683484
7.0497975e+16 -5.3794426e+08 -9.6017923e+19
1.2733166 -2.7203395 -0.014743002
-3.5646932e-31 4.4526101e-29 -1.400801e+19
-2.3661749 -1.0008587 -0.0099022267
-2.3598515e+31 1.2539408e+16 -5.0331342e+13
-1.4036218 -2.7112589 -0.016171291
32200832 -1.9983312e-28 -2.1576093e-06
-2.1834409 -2.3818164 -0.014469155
-2197113.5 -5.3947422e+24 9.9612494
1.2891899 -2.7206559 -0.014245284
3.974356e-12 -1.2720784e-29 -1.5229329e-18
-2.3650024 -1.3479465 -0.010036948
-2.3559724e-06 -4.3659875e+24 2.629116e-13
-1.7281001 -2.6810091 -0.018693449
5.1955426e-17 -0.40473357 4.8077438e-37
1.2973454 -2.7208185 -0.017122274
-18968.525 -0.27003947 0.35477683
-1.3252487 -2.7133915 -0.016297679
1.9354069e+17 -6.7445308e-39 4.7725726e+26
1.1308 -2.7186868 -0.017546296
-2.1255253e+26 331571.28 -2.7559111e+26
-2.3584757 -1.6610849 -0.0076454617
-5.5625531e+10 7.2785665e+34 9.8869741e+08
-2.3548908 -1.7342579 -0.007535255
-8.3543311e-21 -1.7633024e-15 -2.4985132e-24
-2.3606668 -1.6077266 -0.0075782845
-6.9538733e-22 6368698 2596.6453
-2.3662889 -0.91532284 -0.010745454
-1.9960309e+17 -832849.31 -1.3621285e+13
1.2734001 -2.7203412 -0.014740837
7.2740741e-12 -9.2164358e-38 1.0304479e-25
-2.3577397 -1.6761113 -0.010806558
-1.4860568e-37 -38.758762 1.3856533e-19
-2.1897304 -2.3737926 -0.014415126
9.3223992e-24 -9.314639e+31 3.0330921e-06
1.1598281 -2.718976 -0.017360773
21.272882 3.3037162e-29 1.9389592e+17
-2.362036 -1.5518336 -0.010566468
-2.1726611e-15 4.05262e+15 1.779953e+15
1.1963421 -2.7193401 -0.017470233
-6.478061e-15 -2.6863563e-34 -1.6901059e+15
1.2881807 -2.7206359 -0.015167105
-0.0019142053 1.1678386e-12 3.1333746e-19
-2.3659778 -1.1273087 -0.0096134823
-2.5330449e-17 3.3991423e+24 2.0249976e-31
-1.7090605 -2.6840453 -0.015011202
-2079622.4 3.1141147e-29 -4.2147104e-13
-2.2298133 -2.3226581 -0.021796774
6.8255681e+19 2.8519185e-07 -1.2362357e+22
-1.2713833 -2.7144654 -0.015159204
-6.2218563e+16 -0.0019177159 1.5988515e-31
-2.3599527 -1.6309372 -0.010410951
-1.7482618e+20 -1.0559525e+19 755327.75
1.3096905 -2.7210646 -0.012541793
4.4353747e+20 -2.5528317e+36 -49.55307
-2.3588743 -1.6529506 -0.011003971
5.4392781e+14 1.0971619e-20 6.1388881e-33
-2.3632295 -1.5031095 -0.00972284
-2.5046524e+33 -1.3620557e-29 4.1852355e-11
-2.3663614 -0.68924081 -0.0074793841
-4.5284089e-26 -2.1929689e-18 -1.9487462
-2.360199 -1.6259115 -0.010842214
8.1120351e-34 1.1864349e-37 4.9708836e+13
-2.3656564 -1.2323235 -0.01064774
-6.0364042e-38 -2006942 0.36394244
-2.3487754 -1.8045424 -0.0097914888
4.1707564e-38 122962.91 -0.0015041594
-2.3544402 -1.7434596 -0.008021892
-0.00092465989 -4.3508163e+08 -4.0138999e-16
-2.3638237 -1.4577022 -0.010285864
2.8597883e-23 -3.4723105e+19 1.7732316e-37
-1.3831238 -2.7120759 -0.016678851
8.2045529e-34 -5.3262439e-25 -1.3428719e+18
-2.3607626 -1.6038196 -0.01031659
1.1324841e-28 -7.6226485e+20 -3.7797501e+21
-2.3661251 -1.033481 -0.009376986
-3.3368861e-33 -4.1282946e+34 -1.0732984e+16
-2.3659909 -1.1210824 -0.010394843
-2.3276203e-32 -3.0791841e-07 2.780363e-35
-2.3573208 -1.68466 -0.01126578
-8.5133726e-18 1.5827943e-09 -2.3194258e+33
-2.2298186 -2.3226514 -0.021796754
-31.065098 1.5311991e-16 0.00018995794
-2.3656602 -1.2310213 -0.0097351596
-3.908996e+14 4.0811405e+10 2.4130252e-26
-2.3662412 -0.95752084 -0.00952054
-2.1843003e-14 1.2907038e-17 4.1720261e-15
-2.3587496 -1.6554946 -0.0077515817
-2.0615041e-15 -1.9784569e-17 -8.3731077e+09
