# .PCD v0.7 - Point Cloud Data file format
VERSION 0.7
FIELDS x y z rgb
SIZE 4 4 4 4
TYPE F F F U
COUNT 1 1 1 1
WIDTH 1144
HEIGHT 1
VIEWPOINT 0 0 0 1 0 0 0
POINTS 1144
DATA ascii
141.61159 -0.38936251 3.5556502 4284338278
141.80902 -0.51256919 3.6432796 4284338278
142.08311 -0.65270054 3.7638838 4284338278
142.62048 -0.84584308 3.9975922 4284338278
143.49054 -1.1192114 4.3676143 4284338278
143.56438 -1.3451869 4.4102125 4284338278
143.09953 -1.357022 4.2084274 4284338278
143.59311 -1.5713238 4.4257245 4284338278
143.50227 -1.7630882 4.3969841 4284338278
145.98363 3.0963178 5.2187953 4284338278
145.66136 2.9341526 5.08634 4284338278
145.33601 2.7773483 4.9525609 4284338278
145.0127 2.6264596 4.8195782 4284338278
144.70024 2.4821761 4.6910629 4284338278
144.39133 2.3436759 4.5640216 4284338278
144.09236 2.2112823 4.4411325 4284338278
143.80887 2.0850465 4.3247013 4284338278
143.55185 1.9651707 4.2192769 4284338278
143.31964 1.8508651 4.1242137 4284338278
143.11546 1.7415769 4.0408792 4284338278
142.94077 1.6367159 3.9698756 4284338278
142.7966 1.5355046 3.9116962 4284338278
142.67696 1.4371018 3.863888 4284338278
142.51396 1.341293 3.7985194 4284338278
142.45015 1.246961 3.7743404 4284338278
141.67264 1.1524292 3.454643 4284338278
142.16132 1.0849549 3.6627321 4284338278
141.67757 0.97947955 3.4618833 4284338278
141.80666 0.88598585 3.5180833 4284338278
141.96597 0.78872406 3.5871346 4284338278
139.36133 0.80525541 2.4968271 4284338278
139.7364 0.71623725 2.6559269 4284338278
141.48357 0.52974743 3.3895087 4284338278
142.76749 0.36051369 3.9359729 4284338278
143.18684 0.22681208 4.1160202 4284338278
143.63237 0.082619965 4.307292 4284338278
144.15121 -0.076547556 4.5300074 4284338278
144.65842 -0.24470633 4.7478199 4284338278
145.16039 -0.42162254 4.9636769 4284338278
145.52472 -0.59142542 5.1211042 4284338278
145.90771 -0.77020299 5.2865691 4284338278
140.56548 -0.30654413 3.0294297 4284338278
140.09668 -0.30802742 2.8335507 4284338278
143.12947 -0.93255919 4.1199102 4284338278
144.7372 -1.3358272 4.8088107 4284338278
144.20357 -1.3509537 4.5848794 4284338278
144.14549 -1.4554627 4.5615315 4284338278
144.14037 -1.5701489 4.5606647 4284338278
144.57066 -1.7797629 4.7473598 4284338278
145.0137 -1.9995568 4.9401221 4284338278
145.01501 -2.1223371 4.9431653 4284338278
145.34792 -2.3274174 5.0880599 4284338278
145.76559 3.0687561 5.0045929 4284338278
145.41917 2.9058523 4.8649626 4284338278
145.07039 2.7487955 4.7243223 4284338278
144.72482 2.5981662 4.5849366 4284338278
144.39488 2.4549181 4.451849 4284338278
144.06667 2.3176188 4.3194809 4284338278
143.74896 2.1867914 4.1914163 4284338278
143.44804 2.0625031 4.0702219 4284338278
143.17857 1.9451373 3.961818 4284338278
142.9357 1.8336139 3.8642912 4284338278
142.72379 1.7273581 3.7794523 4284338278
142.5455 1.6257908 3.708389 4284338278
142.4021 1.5279957 3.6516461 4284338278
142.283 1.432972 3.6049993 4284338278
142.06253 1.3401872 3.5177612 4284338278
141.99327 1.2497169 3.4918504 4284338278
141.25278 1.1591514 3.1936674 4284338278
141.73436 1.0939058 3.3946922 4284338278
141.26674 0.99281353 3.2044532 4284338278
141.40344 0.9025194 3.2626326 4284338278
141.57297 0.80815214 3.3344619 4284338278
141.76599 0.7092821 3.4161367 4284338278
140.59007 0.667606 2.9309058 4284338278
140.85515 0.56838739 3.0411181 4284338278
142.3858 0.39077693 3.6806245 4284338278
142.77046 0.26188236 3.842344 4284338278
143.2265 0.12009082 4.0341005 4284338278
142.73602 0.050207321 3.8282797 4284338278
143.52029 -0.13707557 4.1544065 4284338278
143.65768 -0.26130262 4.21452 4284338278
144.55788 -0.48296618 4.5911088 4284338278
145.22162 -0.68969756 4.869833 4284338278
141.70764 -0.31179881 3.4135063 4284338278
142.00311 -0.45041138 3.5375564 4284338278
141.46613 -0.45784757 3.3174407 4284338278
142.59399 -0.74278563 3.7865422 4284338278
144.07875 -1.1124506 4.4037404 4284338278
145.45244 -1.4708192 4.9915571 4284338278
145.29813 -1.5887495 4.907536 4284338278
145.66022 -1.7879833 5.0606775 4284338278
145.94189 3.2143722 4.9498549 4284338278
145.57704 3.0446923 4.8058023 4284338278
145.20401 2.8805294 4.6584315 4284338278
144.82925 2.7227323 4.5103135 4284338278
144.45888 2.5719173 4.3638906 4284338278
144.11122 2.4294975 4.2264309 4284338278
143.76118 2.2930264 4.0880613 4284338278
143.42194 2.1634157 3.9540262 4284338278
143.10056 2.0407524 3.8271539 4284338278
142.81764 1.9257355 3.7155762 4284338278
142.56259 1.8168274 3.6151776 4284338278
142.37611 1.7147304 3.5420387 4284338278
142.19569 1.6161245 3.47154 4284338278
142.02129 1.5207125 3.4036975 4284338278
141.90562 1.4289708 3.3593495 4284338278
141.6086 1.3391378 3.2436726 4284338278
141.53699 1.2525791 3.2173617 4284338278
140.9852 1.1640805 3.0001345 4284338278
141.16498 1.0889443 3.0752764 4284338278
141.66861 1.0054809 3.2805574 4284338278
141.50294 0.90929413 3.2158606 4284338278
141.44139 0.81742829 3.1929553 4284338278
141.56824 0.72146839 3.2462711 4284338278
140.0807 0.70131856 2.6463735 4284338278
141.69333 0.51526821 3.2946734 4284338278
143.26791 0.21475181 3.940237 4284338278
142.80617 0.14683919 3.7553744 4284338278
143.11015 0.013639258 3.8807616 4284338278
143.41673 -0.12564111 4.0071454 4284338278
143.57913 -0.25326928 4.0754018 4284338278
143.72191 -0.38261881 4.1347675 4284338278
144.03363 -0.53578979 4.2638035 4284338278
143.86354 -0.62325037 4.1987238 4284338278
143.70924 -0.71128905 4.1389813 4284338278
143.75206 -0.83008575 4.1578689 4284338278
144.42276 -1.059135 4.4301677 4284338278
145.18483 -1.3164014 4.7398252 4284338278
145.53523 -1.5055964 4.8858228 4284338278
145.12329 -1.5536294 4.7174339 4284338278
145.49861 -1.7543278 4.8728137 4284338278
145.87875 -1.9626231 5.0303464 4284338278
145.81252 3.1961811 4.7742834 4284338278
145.41905 3.0242546 4.6221042 4284338278
145.01648 2.8582489 4.4662962 4284338278
144.61266 2.6991665 4.3099494 4284338278
144.2141 2.547646 4.1555915 4284338278
143.84955 2.4059374 4.0143638 4284338278
143.47459 2.2698762 3.8691628 4284338278
143.10994 2.1410639 3.72802 4284338278
142.76372 2.0196302 3.5941331 4284338278
142.46568 1.9067931 3.4789548 4284338278
142.19543 1.8002895 3.3747077 4284338278
142.00308 1.7011422 3.3007584 4284338278
141.81993 1.6056947 3.2306259 4284338278
141.68925 1.5143638 3.1810544 4284338278
141.58185 1.4255298 3.1408095 4284338278
141.19202 1.3373263 2.9917045 4284338278
140.72391 1.2539847 2.8122725 4284338278
140.67525 1.1746025 2.795423 4284338278
139.8567 1.0815542 2.4732957 4284338278
140.2244 1.0286809 2.6254218 4284338278
142.11682 0.91555321 3.3707542 4284338278
139.10219 0.74738115 2.1777742 4284338278
143.55573 0.41499025 3.9451826 4284338278
141.31689 0.36439386 3.0603089 4284338278
142.47427 0.18016943 3.5262938 4284338278
142.80936 0.046355791 3.6612952 4284338278
143.12402 -0.091594718 3.788141 4284338278
143.31017 -0.2208555 3.8635211 4284338278
143.5265 -0.35688001 3.9511011 4284338278
143.83209 -0.5072825 4.0753999 4284338278
144.12674 -0.66168094 4.195384 4284338278
143.91895 -0.74292994 4.1166019 4284338278
143.66008 -0.81446767 4.0151963 4284338278
144.50426 -1.074084 4.3495626 4284338278
145.42336 -1.3613148 4.7146873 4284338278
144.97858 -1.5248891 4.5420284 4284338278
145.35934 -1.7255695 4.6964679 4284338278
145.75961 -1.937324 4.8586226 4284338278
145.77763 3.1900718 4.6365733 4284338278
145.34888 3.0143239 4.4742231 4284338278
144.9115 2.8451581 4.3085008 4284338278
144.47287 2.6835093 4.1422396 4284338278
144.04027 2.5300922 3.97822 4284338278
143.60991 2.3842509 3.8151312 4284338278
143.20631 2.2481303 3.6620996 4284338278
142.81091 2.1196012 3.5122545 4284338278
142.47577 2.0014706 3.3852868 4284338278
142.15811 1.8901738 3.2650654 4284338278
141.86488 1.7853845 3.1542974 4284338278
141.713 1.6905334 3.0971143 4284338278
141.5224 1.5974138 3.0256228 4284338278
141.34877 1.5078471 2.9608605 4284338278
141.24841 1.4219854 2.9241195 4284338278
141.39792 1.3380837 2.9822211 4284338278
141.37837 1.2527421 2.9768386 4284338278
141.35378 1.1673627 2.9698846 4284338278
140.07368 1.095677 2.4843078 4284338278
140.53717 1.0319809 2.6679552 4284338278
140.85985 0.92231023 2.7893744 4284338278
140.63037 0.85045451 2.7049208 4284338278
139.5405 0.81086624 2.2844636 4284338278
138.86792 0.76810604 2.0215247 4284338278
142.52022 0.077780813 3.4514575 4284338278
142.73959 -0.048989657 3.5375824 4284338278
142.97751 -0.18131219 3.631192 4284338278
143.31137 -0.32830554 3.7634554 4284338278
143.67641 -0.48546079 3.9080174 4284338278
143.98149 -0.63990206 4.029861 4284338278
143.84447 -0.7308374 3.9803913 4284338278
143.5218 -0.79125977 3.8563018 4284338278
145.30109 -1.2169383 4.5417027 4284338278
145.46645 -1.3701162 4.6104407 4284338278
144.85489 -1.5005289 4.3772221 4284338278
145.25127 -1.7036345 4.5344267 4284338278
145.65839 -1.9160829 4.6958899 4284338278
145.79021 3.1899719 4.5171018 4284338278
145.32327 3.0096712 4.3440938 4284338278
144.84662 2.8364651 4.1673899 4284338278
144.36823 2.6714017 3.9899759 4284338278
143.89604 2.5152688 3.8148136 4284338278
143.44487 2.3689816 3.6474824 4284338278
143.00775 2.2317939 3.4853089 4284338278
142.57008 2.1021731 3.3230422 4284338278
142.19203 1.9835476 3.1829376 4284338278
141.85043 1.8735354 3.0564032 4284338278
141.52971 1.770288 2.937815 4284338278
141.34364 1.6771108 2.8691802 4284338278
141.14134 1.5868846 2.7948599 4284338278
140.99445 1.5011054 2.7413363 4284338278
140.89214 1.4182607 2.7046559 4284338278
140.93207 1.3372473 2.720937 4284338278
140.91106 1.255892 2.7151217 4284338278
140.86418 1.174764 2.7000775 4284338278
139.70764 1.10059 2.2699635 4284338278
140.12315 1.0454006 2.4331455 4284338278
140.50677 0.93553311 2.5738914 4284338278
140.7195 0.84553075 2.6557353 4284338278
140.78592 0.76086318 2.6838067 4284338278
138.7346 0.78765506 1.9103197 4284338278
142.37257 -0.0080310414 3.3002582 4284338278
142.72218 -0.14934689 3.4350936 4284338278
143.09055 -0.29886493 3.5775511 4284338278
143.49504 -0.46003464 3.7337644 4284338278
144.2384 -0.67908877 4.0179071 4284338278
144.6693 -0.86139077 4.1848087 4284338278
144.78983 -1.0094023 4.2242508 4284338278
145.23085 -1.2052367 4.3956108 4284338278
145.64174 -1.4038256 4.5551643 4284338278
144.74744 -1.4795538 4.2207289 4284338278
145.15834 -1.684997 4.3800287 4284338278
145.58083 -1.9002312 4.5438046 4284338278
145.78287 3.1873121 4.390501 4284338278
145.27547 3.0023313 4.2066584 4284338278
144.75693 2.8249753 4.0186815 4284338278
144.23618 2.6564336 3.8298388 4284338278
143.72191 2.4975748 3.6432867 4284338278
143.24753 2.3509014 3.4711676 4284338278
142.77519 2.2127836 3.2997844 4284338278
142.28906 2.0819321 3.1235564 4284338278
141.91609 1.9661016 2.9882634 4284338278
141.54683 1.8571171 2.854466 4284338278
141.18747 1.7548916 2.724509 4284338278
140.9756 1.6637831 2.648005 4284338278
140.75818 1.5763557 2.5698195 4284338278
140.59688 1.4936349 2.512243 4284338278
140.4877 1.4141455 2.4738631 4284338278
140.48466 1.3365421 2.4742253 4284338278
140.46031 1.2590554 2.4673381 4284338278
140.36905 1.1823401 2.4365973 4284338278
139.89026 1.1248189 2.2674251 4284338278
139.71806 1.0515978 2.207108 4284338278
140.11017 0.95180064 2.3489888 4284338278
140.41066 0.86052227 2.460784 4284338278
140.66791 0.7671324 2.5575161 4284338278
140.92499 0.6692301 2.6545873 4284338278
141.28027 0.5671888 2.7916884 4284338278
142.86879 0.35954881 3.380646 4284338278
144.67909 -0.15140246 4.0507364 4284338278
142.43187 -0.018381832 3.2239337 4284338278
142.40396 -0.11117767 3.2190151 4284338278
142.87761 -0.2705749 3.398371 4284338278
143.29095 -0.43598112 3.5500734 4284338278
142.91121 -0.49098009 3.4077542 4284338278
144.23534 -0.80352378 3.8999259 4284338278
144.66125 -0.98833561 4.061748 4284338278
145.23691 -1.2071909 4.278904 4284338278
145.64218 -1.4049644 4.4329758 4284338278
144.66263 -1.4633354 4.0744343 4284338278
145.08754 -1.6712086 4.2354002 4284338278
145.52573 -1.8895066 4.4013414 4284338278
145.89923 3.2004485 4.3075972 4284338278
145.34848 3.0093749 4.1125979 4284338278
144.78247 2.826215 3.9121089 4284338278
144.21172 2.6524293 3.709866 4284338278
143.64682 2.4891212 3.509635 4284338278
143.07448 2.3348944 3.3068583 4284338278
142.56396 2.1954024 3.1258168 4284338278
142.12686 2.0697906 2.9706724 4284338278
141.65465 1.9495486 2.803436 4284338278
141.25313 1.8412194 2.6612217 4284338278
140.91185 1.7423444 2.5404859 4284338278
140.60773 1.6505288 2.433161 4284338278
140.37242 1.5658282 2.3503828 4284338278
140.19635 1.4861863 2.2888563 4284338278
140.07881 1.4100738 2.2483768 4284338278
140.04808 1.3359599 2.2389405 4284338278
140.00574 1.2623922 2.2258797 4284338278
139.76753 1.1894011 2.143636 4284338278
139.37221 1.1401713 2.008862 4284338278
139.57668 1.0499926 2.0811195 4284338278
139.68871 0.96964091 2.1222236 4284338278
140.00798 0.88101822 2.2381725 4284338278
140.27539 0.79040408 2.3363917 4284338278
140.57191 0.6927889 2.4451754 4284338278
140.92276 0.58504701 2.5731592 4284338278
141.27513 0.47146118 2.7022359 4284338278
142.0645 0.32104796 2.9933803 4284338278
145.203 -0.075454757 4.1256437 4284338278
144.08186 -0.089763552 3.7210479 4284338278
143.11487 -0.097314671 3.3733206 4284338278
143.37056 -0.23413815 3.4684308 4284338278
143.56697 -0.48201218 3.5400949 4284338278
142.75595 -0.47841337 3.2404294 4284338278
145.20741 -0.96032131 4.1378965 4284338278
144.60832 -0.98006314 3.9288437 4284338278
145.29765 -1.2188783 4.1820827 4284338278
145.70959 -1.4186603 4.3351307 4284338278
144.61314 -1.4545634 3.9422174 4284338278
145.05064 -1.6648751 4.1040964 4284338278
145.50563 -1.8867878 4.2722964 4284338278
145.49013 3.0245414 4.0410695 4284338278
144.86963 2.8342233 3.8264511 4284338278
144.24168 2.6539395 3.6091731 4284338278
143.619 2.48506 3.393646 4284338278
143.00227 2.3274417 3.1801996 4284338278
142.44113 2.184777 2.9858563 4284338278
141.933 2.0554738 2.8098037 4284338278
141.40649 1.933795 2.6276879 4284338278
140.96669 1.8257078 2.4755151 4284338278
140.61058 1.7287323 2.3523722 4284338278
140.23596 1.6371876 2.2232473 4284338278
139.98079 1.5552039 2.1354952 4284338278
139.78937 1.4786848 2.0700676 4284338278
139.66197 1.4059927 2.0271065 4284338278
139.61046 1.3354498 2.0107219 4284338278
139.55656 1.2657729 1.9940147 4284338278
139.2637 1.1975194 1.8949294 4284338278
140.1413 1.1134795 2.2011542 4284338278
139.53352 1.050859 1.9928309 4284338278
139.46503 0.97851282 1.9706938 4284338278
139.61818 0.90096217 2.0269439 4284338278
139.90588 0.81233567 2.1299627 4284338278
140.24496 0.71386915 2.2504895 4284338278
140.58656 0.61032534 2.3727815 4284338278
140.93033 0.49902537 2.4951649 4284338278
141.3157 0.3787691 2.6328161 4284338278
141.69327 0.25485829 2.769784 4284338278
140.00726 0.32871997 2.1702147 4284338278
142.72902 -0.052905507 3.1368868 4284338278
143.4137 -0.46118119 3.3807459 4284338278
144.38423 -0.71998823 3.7193537 4284338278
145.54924 -1.264547 4.1516061 4284338278
144.57188 -1.4475183 3.8139501 4284338278
145.0218 -1.6603068 3.9764752 4284338278
145.49368 -1.8859355 4.1466899 4284338278
145.63231 3.039706 3.9676857 4284338278
144.94836 2.8412485 3.7368279 4284338278
144.25577 2.6537914 3.5029514 4284338278
143.56909 2.4789102 3.2709982 4284338278
142.89598 2.3170524 3.0435975 4284338278
142.27199 2.1706076 2.832675 4284338278
141.69987 2.0385022 2.6392326 4284338278
141.17476 1.9190267 2.4617391 4284338278
140.69 1.8107164 2.2980037 4284338278
140.28284 1.7140223 2.1605685 4284338278
139.90768 1.6253599 2.0342398 4284338278
139.58028 1.544407 1.9242991 4284338278
139.3734 1.4710897 1.8551849 4284338278
139.23511 1.4018892 1.8095556 4284338278
139.19887 1.3349984 1.7986753 4284338278
139.07195 1.2695129 1.7578942 4284338278
138.76241 1.2057515 1.6556641 4284338278
139.63588 1.1258316 1.9530995 4284338278
139.0733 1.0664872 1.7651925 4284338278
139.04147 0.99681449 1.7560645 4284338278
139.23395 0.92071426 1.8243093 4284338278
139.55499 0.83310997 1.9361364 4284338278
139.9024 0.73728365 2.0568349 4284338278
140.22955 0.63543177 2.1700587 4284338278
140.60936 0.52552795 2.3026752 4284338278
141.04105 0.40411091 2.4531965 4284338278
141.49611 0.27280432 2.6120133 4284338278
142.01245 0.12695535 2.7921045 4284338278
141.63173 0.072656535 2.662353 4284338278
141.50458 0.0029704799 2.628422 4284338278
140.00375 0.099859029 2.1036761 4284338278
143.43227 -0.45813262 3.29074 4284338278
145.66856 -1.2871437 4.0715551 4284338278
144.5537 -1.4453422 3.6944091 4284338278
145.02579 -1.6629653 3.8605859 4284338278
145.50426 -1.8902411 4.029098 4284338278
145.87611 3.0668716 3.9253678 4284338278
145.11388 2.8577862 3.6744812 4284338278
144.34224 2.6609709 3.420388 4284338278
143.57812 2.4782326 3.168673 4284338278
142.83348 2.3103564 2.9233027 4284338278
142.13605 2.1589653 2.6933813 4284338278
141.49298 2.0233207 2.4813218 4284338278
140.90465 1.9019914 2.2873452 4284338278
140.36995 1.793551 2.1111395 4284338278
139.91692 1.6977408 1.9619348 4284338278
139.52127 1.6116122 1.8318741 4284338278
139.21841 1.5346386 1.7325447 4284338278
138.94733 1.4633938 1.6440823 4284338278
138.79863 1.3977773 1.5961267 4284338278
138.7482 1.3346274 1.5808527 4284338278
138.57471 1.2734594 1.5258996 4284338278
138.26526 1.2140872 1.4263225 4284338278
139.12697 1.1382756 1.7125149 4284338278
138.58492 1.0794103 1.5349463 4284338278
138.63896 1.0143217 1.555634 4284338278
139.16602 0.92334223 1.7317095 4284338278
139.57468 0.83106172 1.8697782 4284338278
140.02525 0.72862208 2.0220125 4284338278
140.27191 0.63159317 2.1059756 4284338278
140.24535 0.5521481 2.0988946 4284338278
140.35083 0.46197391 2.1361053 4284338278
140.59119 0.35708141 2.218641 4284338278
140.93521 0.23709442 2.3361242 4284338278
141.27248 0.11194023 2.451628 4284338278
139.77045 0.20629369 1.9474639 4284338278
139.37111 0.18297704 1.8149177 4284338278
145.01149 -0.6726535 3.7289999 4284338278
145.7437 -1.3022045 3.9748161 4284338278
144.55493 -1.4473091 3.5817974 4284338278
145.04919 -1.6699399 3.7512395 4284338278
145.53539 -1.8992857 3.9183245 4284338278
145.3925 2.8867056 3.6456544 4284338278
144.5226 2.6776345 3.3665435 4284338278
143.66301 2.4845791 3.090606 4284338278
142.82903 2.3085454 2.8227882 4284338278
142.04398 2.1506507 2.5705686 4284338278
141.31828 2.0103261 2.3373435 4284338278
140.65648 1.8862733 2.1246574 4284338278
140.06119 1.7769967 1.9334085 4284338278
139.5569 1.6817638 1.7714652 4284338278
139.13156 1.5978076 1.6350715 4284338278
138.80231 1.5235668 1.5297164 4284338278
138.55684 1.456344 1.4515511 4284338278
138.3947 1.3939859 1.400485 4284338278
138.3692 1.3342605 1.3935255 4284338278
138.34914 1.2708403 1.3883767 4284338278
138.55286 1.2080805 1.4555417 4284338278
138.76424 1.1406701 1.5256221 4284338278
138.99881 1.0730021 1.6051137 4284338278
139.18306 0.99636883 1.6668329 4284338278
139.62335 0.90623993 1.8119581 4284338278
139.88753 0.81770658 1.9005966 4284338278
139.90285 0.73806494 1.907607 4284338278
140.35861 0.62810236 2.0583124 4284338278
140.92357 0.50279105 2.2459617 4284338278
141.52873 0.36250076 2.4460728 4284338278
142.17786 0.20717849 2.6608095 4284338278
142.84369 0.038717277 2.8814087 4284338278
143.52264 -0.14286022 3.1067204 4284338278
144.17737 -0.33296451 3.3248384 4284338278
144.88258 -0.54099488 3.5601091 4284338278
145.19189 -0.70693058 3.6640491 4284338278
142.4693 -0.61778742 2.7857726 4284338278
144.57263 -1.452823 3.4746912 4284338278
145.08119 -1.6788673 3.6445634 4284338278
145.58551 -1.9127337 3.8133652 4284338278
145.82234 2.9321518 3.659348 4284338278
144.82727 2.7068312 3.3485258 4284338278
143.84799 2.5001762 3.0424604 4284338278
142.90195 2.3132319 2.7466309 4284338278
142.00986 2.1467192 2.4675355 4284338278
141.18488 2.0001199 2.2093365 4284338278
140.43483 1.8721399 1.9745678 4284338278
139.76517 1.7611259 1.7649902 4284338278
139.20027 1.6659874 1.5882496 4284338278
138.73518 1.5838453 1.4428802 4284338278
138.37447 1.512278 1.3303571 4284338278
138.10341 1.4483496 1.2461827 4284338278
137.92505 1.3897736 1.1913519 4284338278
137.9319 1.334013 1.1945711 4284338278
138.29172 1.2745383 1.3079107 4284338278
138.54001 1.2108773 1.3874215 4284338278
138.69327 1.1469592 1.4385747 4284338278
137.89659 1.1014663 1.1909388 4284338278
138.00003 1.0391685 1.2257763 4284338278
138.35484 0.96327132 1.3398788 4284338278
138.76283 0.87787443 1.4710442 4284338278
139.22018 0.78189075 1.6180832 4284338278
139.72217 0.6744228 1.7795099 4284338278
140.25848 0.55516195 1.9520617 4284338278
140.83188 0.42302886 2.1366146 4284338278
141.42558 0.27867922 2.3278091 4284338278
138.77806 0.46381983 1.480129 4284338278
142.0672 0.023125859 2.5386767 4284338278
144.43822 -0.37330648 3.29159 4284338278
144.20361 -1.2656671 3.2393277 4284338278
144.62555 -1.4658701 3.3784156 4284338278
145.14732 -1.6953984 3.5481219 4284338278
145.67105 -1.9343736 3.7187178 4284338278
145.2968 2.7526367 3.3754997 4284338278
144.16605 2.5280504 3.031714 4284338278
143.07854 2.3266084 2.7008667 4284338278
142.05351 2.1486561 2.3888505 4284338278
141.10632 1.9936048 2.1004012 4284338278
140.24774 1.8600596 1.8388746 4284338278
139.48529 1.7461127 1.6066302 4284338278
138.84631 1.650389 1.4120059 4284338278
138.32939 1.5696484 1.2546612 4284338278
137.92928 1.5006512 1.13308 4284338278
137.62531 1.4400592 1.0411052 4284338278
137.41995 1.3854088 0.97953379 4284338278
137.42154 1.3339659 0.98105049 4284338278
137.69716 1.279683 1.065944 4284338278
137.95959 1.2208635 1.1476754 4284338278
137.78247 1.1645486 1.0959589 4284338278
137.44279 1.1176513 0.99518907 4284338278
137.59293 1.0572414 1.0434574 4284338278
137.98582 0.98269087 1.1662571 4284338278
138.4339 0.89785498 1.3062965 4284338278
138.93275 0.80163532 1.4622471 4284338278
139.48016 0.69292587 1.6334245 4284338278
139.40698 0.62490177 1.6136317 4284338278
139.80533 0.51322991 1.7366766 4284338278
140.45253 0.37142497 1.9380344 4284338278
143.80444 -0.08159823 2.965991 4284338278
145.65076 -0.41425824 3.5329444 4284338278
144.68611 -1.4805888 3.2840204 4284338278
145.22639 -1.7148298 3.4549172 4284338278
145.76871 -1.9588457 3.6267247 4284338278
145.96532 2.8184979 3.4534111 4284338278
144.65192 2.5714083 3.0652881 4284338278
143.39111 2.3513756 2.6924412 4284338278
142.20164 2.1584661 2.3404663 4284338278
141.10298 1.9921328 2.0151851 4284338278
140.10921 1.8508452 1.7208579 4284338278
139.23001 1.7323806 1.4604363 4284338278
138.49916 1.6351451 1.243915 4284338278
137.91656 1.5553064 1.0713681 4284338278
137.46791 1.4887311 0.93868303 4284338278
137.12248 1.4314919 0.83694202 4284338278
136.87842 1.3809104 0.76565373 4284338278
136.87448 1.334107 0.76547784 4284338278
137.11197 1.2848741 0.83687502 4284338278
137.39723 1.2306359 0.92315918 4284338278
137.54573 1.1711468 0.9687888 4284338278
137.02132 1.1328202 0.81682307 4284338278
137.21181 1.0742333 0.8758927 4284338278
137.60234 1.0026416 0.99471825 4284338278
137.93333 0.92724723 1.0961241 4284338278
138.46036 0.83299124 1.2561139 4284338278
141.16046 0.55884361 2.055984 4284338278
141.90793 0.40839419 2.2822025 4284338278
142.73662 0.23722962 2.53285 4284338278
143.58778 0.049381591 2.7906263 4284338278
144.45795 -0.15614413 3.0534065 4284338278
145.70197 -0.42224967 3.4265425 4284338278
139.74611 -0.18417972 1.6302971 4284338278
142.74983 -0.99176919 2.5659335 4284338278
140.19142 -0.57359999 1.7851584 4284338278
145.3688 -1.7484943 3.3786361 4284338278
145.89394 -1.9896884 3.5416219 4284338278
145.37502 2.6366174 3.1588764 4284338278
143.89883 2.3924565 2.7349091 4284338278
142.50252 2.1797504 2.3336034 4284338278
141.21144 1.9981245 1.9623145 4284338278
140.04524 1.8459979 1.626785 4284338278
139.01599 1.720751 1.3305887 4284338278
138.16893 1.6206729 1.0867267 4284338278
137.50345 1.5410454 0.89512855 4284338278
136.99556 1.4766506 0.7490707 4284338278
136.59895 1.422721 0.63546836 4284338278
136.30417 1.3763175 0.5516929 4284338278
136.29729 1.3344334 0.55066842 4284338278
136.52522 1.2902185 0.61736888 4284338278
136.85849 1.2400655 0.71501881 4284338278
137.05768 1.1842208 0.77408111 4284338278
137.08307 1.1324285 0.78438276 4284338278
138.26413 1.0267357 1.1231002 4284338278
138.85704 0.93538702 1.2968981 4284338278
139.52293 0.82921672 1.4921547 4284338278
140.22952 0.70856762 1.6995811 4284338278
140.99626 0.57090318 1.9247347 4284338278
141.81801 0.41514286 2.1661375 4284338278
142.72078 0.23737739 2.4312093 4284338278
143.69852 0.036090896 2.7181263 4284338278
144.79044 -0.19549763 3.0374577 4284338278
145.84547 -0.44164652 3.3463182 4284338278
140.31204 -0.28021345 1.7251637 4284338278
145.10239 -1.5771018 3.164845 4284338278
144.70627 2.4585428 2.8524597 4284338278
143.03995 2.2187603 2.3877568 4284338278
141.49577 2.015811 1.9568294 4284338278
140.10155 1.8481488 1.5675297 4284338278
138.87271 1.7126716 1.2242922 4284338278
137.87386 1.6077139 0.94510627 4284338278
137.10146 1.5272368 0.729137 4284338278
136.51959 1.4645909 0.56656969 4284338278
136.05862 1.4138157 0.43829632 4284338278
135.69902 1.3716575 0.33899784 4284338278
135.6937 1.3349512 0.33841914 4284338278
135.94472 1.2956343 0.4096317 4284338278
136.31348 1.2497294 0.51443487 4284338278
136.56567 1.1974081 0.58674985 4284338278
137.2531 1.1244609 0.77920586 4284338278
137.87367 1.0440414 0.95429569 4284338278
138.54173 0.95182818 1.1441997 4284338278
139.28459 0.84337896 1.3554659 4284338278
140.07285 0.71879911 1.5798849 4284338278
140.9187 0.57599068 1.8208102 4284338278
141.82072 0.41361314 2.0778453 4284338278
142.79796 0.22838387 2.3562219 4284338278
143.8528 0.018053927 2.6565053 4284338278
145.01903 -0.223483 2.9875486 4284338278
144.2538 -0.95385814 2.7713082 4284338278
145.40199 -1.7663287 3.136905 4284338278
143.96381 2.286669 2.537441 4284338278
142.0713 2.0528002 2.025454 4284338278
140.3613 1.862072 1.5625391 4284338278
138.85364 1.7107582 1.1542258 4284338278
137.64714 1.5976135 0.82717067 4284338278
136.73099 1.514535 0.57863313 4284338278
136.05176 1.4528314 0.39444482 4284338278
135.62462 1.4066103 0.27875832 4284338278
135.6597 1.370432 0.28776971 4284338278
136.91182 1.347281 0.62336725 4284338278
136.83765 1.2793804 0.60385901 4284338278
136.08904 1.2412078 0.40328357 4284338278
138.77753 1.1454712 1.1367731 4284338278
137.10559 1.1288102 0.68680769 4284338278
137.62241 1.055213 0.82997215 4284338278
138.31326 0.9635759 1.0206579 4284338278
139.14935 0.85106319 1.2510824 4284338278
140.01828 0.72168356 1.4908868 4284338278
140.94905 0.57235599 1.7478682 4284338278
141.93587 0.40201318 2.0204513 4284338278
142.99164 0.20794658 2.3120403 4284338278
144.12077 -0.012123815 2.6237211 4284338278
145.34988 -0.26335162 2.9621348 4284338278
145.10268 -1.1009229 2.8964965 4284338278
145.3759 -1.8882885 3.0148144 4284338278
143.80061 -2.3163774 2.5938778 4284338278
141.25363 -1.8601441 1.8982713 4284338278
145.55917 2.404707 2.8474882 4284338278
143.1539 2.1233206 2.2173779 4284338278
140.97458 1.8963723 1.6460359 4284338278
139.04501 1.7192166 1.1399293 4284338278
137.53036 1.5920379 0.74216747 4284338278
136.3998 1.5031781 0.44495779 4284338278
135.57031 1.4408578 0.22692861 4284338278
135.13472 1.398661 0.11220648 4284338278
135.12979 1.3666524 0.1103302 4284338278
135.10748 1.3303444 0.10447076 4284338278
135.11707 1.2958652 0.10762883 4284338278
135.3727 1.2557549 0.17456616 4284338278
137.69225 1.1661124 0.78576905 4284338278
138.46834 1.0817398 0.99176276 4284338278
139.73758 0.96332937 1.3277757 4284338278
141.1501 0.81529826 1.7019876 4284338278
142.75526 0.6311878 2.1275215 4284338278
144.54901 0.40637925 2.6034772 4284338278
140.9353 -0.21762308 1.6543924 4284338278
143.40994 -0.70803869 2.3148472 4284338278
145.68343 -1.9611464 2.9757454 4284338278
145.6384 -2.2048829 2.9712322 4284338278
143.7972 -2.3184359 2.4859252 4284338278
144.69659 -2.6936758 2.727669 4284338278
145.2262 2.2591743 2.642086 4284338278
142.27855 1.9703773 1.8945941 4284338278
139.64249 1.7475907 1.2257918 4284338278
137.62747 1.5951748 0.71379292 4284338278
136.1499 1.4945068 0.33787462 4284338278
135.07068 1.4285862 0.06331297 4284338278
134.46822 1.3882573 -0.090116352 4284338278
134.34142 1.3612078 -0.12272304 4284338278
134.47974 1.3342783 -0.087447383 4284338278
135.10732 1.3016161 0.072440021 4284338278
136.09312 1.2511373 0.32403687 4284338278
137.3185 1.1761539 0.63700479 4284338278
138.00035 1.0961107 0.81140447 4284338278
139.58934 0.96596271 1.2160916 4284338278
141.04861 0.8159048 1.5897603 4284338278
142.56313 0.63717991 1.9780282 4284338278
144.06496 0.43311071 2.3636096 4284338278
145.60706 0.19991274 2.7598419 4284338278
145.36061 -0.40521815 2.7094197 4284338278
145.28661 -0.52104461 2.6900618 4284338278
145.59821 -1.0681139 2.7763739 4284338278
145.22194 2.1384497 2.523268 4284338278
141.19122 1.822459 1.5353309 4284338278
138.2489 1.6195043 0.81286871 4284338278
136.14429 1.4936848 0.29534495 4284338278
134.61224 1.4174085 -0.081373446 4284338278
133.76308 1.3774608 -0.29033816 4284338278
133.53027 1.3558253 -0.34783313 4284338278
133.74745 1.3370568 -0.29420367 4284338278
134.51601 1.3081305 -0.10499991 4284338278
135.69745 1.2574757 0.18595381 4284338278
137.09947 1.1803759 0.53206557 4284338278
138.32401 1.0829211 0.83325177 4284338278
139.92172 0.94967687 1.2281102 4284338278
141.59193 0.78496373 1.6413941 4284338278
143.30399 0.58883518 2.0655444 4284338278
144.96107 0.36697298 2.4767394 4284338278
144.15474 -0.2633189 2.2905731 4284338278
145.59546 -0.56458324 2.6478944 4284338278
143.35045 -0.80654597 2.1134081 4284338278
145.68086 2.0407753 2.5159791 4284338278
140.4843 1.7087821 1.2845354 4284338278
136.9427 1.5183839 0.44393232 4284338278
134.35437 1.4110086 -0.1703621 4284338278
133.03163 1.3664786 -0.48454604 4284338278
132.66969 1.3503869 -0.57063454 4284338278
132.97374 1.3387841 -0.49817774 4284338278
134.09871 1.3121636 -0.23109473 4284338278
135.69608 1.256353 0.14838181 4284338278
137.18935 1.1747367 0.5034312 4284338278
138.989 1.0571064 0.93224573 4284338278
140.8665 0.90491992 1.3801438 4284338278
142.81294 0.71673769 1.8450421 4284338278
144.72266 0.49728665 2.3018498 4284338278
144.15503 -0.26715407 2.1815314 4284338278
143.58601 -0.8506698 2.0679412 4284338278
142.9899 1.7087268 1.779739 4284338278
135.33476 1.4332108 0.028754529 4284338278
132.28233 1.355436 -0.67018896 4284338278
132.28564 1.3404815 -0.66927016 4284338278
134.23921 1.3102037 -0.22188559 4284338278
136.71613 1.2350775 0.34538242 4284338278
138.53493 1.1346811 0.76226616 4284338278
140.77248 0.98870814 1.2762634 4284338278
143.01785 0.80395317 1.7927408 4284338278
145.23889 0.5819537 2.3043411 4284338278
139.55592 0.28838885 1.0099919 4284338278
134.41289 1.3332508 -0.20869292 4284338278
139.90088 1.2421995 1.0004097 4284338278
140.8584 1.1470606 1.2121153 4284338278
143.14005 0.99853528 1.7167974 4284338278
145.48068 0.80877501 2.2351475 4284338278
135.52322 0.77816033 0.044476058 4284338278
143.72076 0.2096335 1.7463955 4284338278
135.02365 0.83771557 -0.097484015 4284338278
138.87578 0.63353705 0.65285045 4284338278
140.47705 0.48590809 0.90218502 4284338278
142.45798 0.30243391 1.1940097 4284338278
141.24829 0.15236226 0.95353943 4284338278
143.00977 -0.25953153 1.3038944 4284338278
143.61769 -0.44818687 1.4201024 4284338278
142.78622 -1.2490096 1.176338 4284338278
144.66714 -1.6602738 1.381074 4284338278
144.57573 0.10677683 1.2100059 4284338278
145.90289 -0.15063287 1.44697 4284338278
143.13695 -0.60066301 1.0128186 4284338278
142.15897 0.029298557 0.74526042 4284338278
144.24144 -0.21865252 0.95063186 4284338278
143.95807 -0.091107622 0.69262636 4284338278
146.33186 26.828581 -0.82267529 4284338278
145.59326 25.708696 -1.1053358 4284338278
145.73515 25.839041 -0.97923893 4284338278
144.95607 24.542824 -1.1626546 4284338278
144.87292 24.304104 -1.0618562 4284338278
144.61469 23.974623 -1.3024017 4284338278
144.57278 23.806814 -1.2041481 4284338278
144.45805 23.713764 -1.4255567 4284338278
144.43515 23.57868 -1.3301777 4284338278
144.30035 23.353849 -1.4626575 4284338278
144.22359 23.225075 -1.5895778 4284338278
142.88232 -9.12078 -1.1257287 4284338278
142.99947 -9.4524441 -1.06181 4284338278
144.21962 23.217169 -1.7105298 4284338278
142.13019 -8.65131 -1.2518251 4284338278
144.25432 23.272673 -1.8346006 4284338278
144.39929 23.418356 -1.7335925 4284338278
141.93556 -8.5815401 -1.3251941 4284338278
144.31808 23.375418 -1.9642074 4284338278
144.46255 23.519352 -1.8708833 4284338278
142.1781 -8.7939596 -1.4571418 4284338278
144.57324 23.696739 -2.0195098 4284338278
144.7348 23.955696 -2.1829054 4284338278
145.06952 24.403837 -2.1214263 4284338278
144.97176 24.335516 -2.3688369 4284338278
145.45535 25.025772 -2.3193922 4284338278
145.77039 25.533756 -2.50545 4284338278
145.94928 25.716951 -2.4452798 4284338278
144.86639 -11.218964 -2.0671332 4284338278
146.13416 26.121399 -2.6992218 4284338278
141.70239 -9.779171 -3.7020035 4284338278
142.91971 -11.578214 -3.9806378 4284338278
141.69038 -9.7676611 -3.7962954 4284338278
142.07115 -10.268845 -3.8748329 4284338278
142.30244 -10.613139 -3.9286356 4284338278
142.49271 -10.913957 -3.9808216 4284338278
142.73862 -11.277835 -4.0469728 4284338278
142.99545 -11.658273 -4.1150942 4284338278
141.68703 -9.765214 -3.8923287 4284338278
142.05597 -10.251275 -3.9775152 4284338278
142.29337 -10.599917 -4.0394711 4284338278
142.51364 -10.933492 -4.0992441 4284338278
142.81544 -11.35848 -4.1801066 4284338278
143.13548 -11.809466 -4.2636809 4284338278
145.51273 -10.771736 -5.0400672 4284338278
141.6973 -9.7767115 -3.9923046 4284338278
142.05569 -10.250037 -4.0820928 4284338278
142.30713 -10.61255 -4.1520305 4284338278
142.55502 -10.976095 -4.2203794 4284338278
142.91103 -11.460914 -4.315794 4284338278
143.28873 -11.975808 -4.4164047 4284338278
145.60591 -10.596942 -5.1919398 4284338278
145.17361 -10.370174 -5.0677629 4284338278
145.12589 -10.455282 -5.053956 4284338278
141.71083 -9.7921238 -4.0921912 4284338278
142.0565 -10.250404 -4.1857252 4284338278
142.30898 -10.612864 -4.2606912 4284338278
142.58626 -11.007953 -4.3390493 4284338278
143.00554 -11.561038 -4.4552436 4284338278
143.44872 -12.147978 -4.5768523 4284338278
144.35741 -13.254459 -4.8187881 4284338278
145.44318 -14.568583 -5.116219 4284338278
144.96326 -10.079035 -5.1279359 4284338278
144.59488 -9.8990068 -5.0189981 4284338278
144.63542 -10.05242 -5.0307922 4284338278
145.34618 -11.396516 -5.2489705 4284338278
144.61595 -10.874702 -5.0278525 4284338278
141.71237 -9.7953253 -4.1884179 4284338278
142.03757 -10.229824 -4.2841039 4284338278
142.31039 -10.615006 -4.3644128 4284338278
142.5983 -11.02052 -4.4502158 4284338278
143.06261 -11.621268 -4.5848861 4284338278
143.57112 -12.278808 -4.7306519 4284338278
144.42845 -13.329419 -4.9687219 4284338278
145.52884 -14.661609 -5.2778835 4284338278
143.97285 -9.5060215 -4.9472356 4284338278
144.15321 -10.34855 -5.0070086 4284338278
144.1973 -10.506295 -5.0165763 4284338278
145.16206 -11.491985 -5.3106799 4284338278
145.38426 -11.819536 -5.377831 4284338278
141.72437 -9.8103685 -4.2857857 4284338278
142.04677 -10.240914 -4.3858938 4284338278
142.31564 -10.621638 -4.4683232 4284338278
142.61243 -11.036622 -4.5594697 4284338278
143.10832 -11.670621 -4.7093635 4284338278
143.69958 -12.417089 -4.8864684 4284338278
144.52109 -13.430295 -5.1211019 4284338278
145.58127 -14.718641 -5.4298186 4284338278
145.14694 -10.6049 -5.4361033 4284338278
145.00244 -10.607514 -5.3898082 4284338278
145.07761 -10.794947 -5.4139996 4284338278
145.252 -11.069493 -5.4696026 4284338278
145.16164 -11.115973 -5.4415321 4284338278
143.67943 -9.9349651 -4.9707379 4284338278
143.84549 -10.197293 -5.0191393 4284338278
144.51343 -10.912643 -5.2285891 4284338278
144.67392 -11.178283 -5.2784781 4284338278
141.74471 -9.8348665 -4.38449 4284338278
142.06786 -10.265026 -4.4902954 4284338278
142.3345 -10.643207 -4.5752878 4284338278
142.6389 -11.066355 -4.6716914 4284338278
143.15332 -11.720498 -4.8318133 4284338278
143.78743 -12.513994 -5.026948 4284338278
144.56377 -13.476032 -5.2610631 4284338278
144.6315 -10.177217 -5.3910899 4284338278
144.41776 -10.116705 -5.3209143 4284338278
144.51514 -10.318021 -5.3529868 4284338278
144.46396 -10.392333 -5.3372908 4284338278
144.60114 -10.630807 -5.3820281 4284338278
143.1888 -9.5062895 -4.9208355 4284338278
143.5018 -9.8954077 -5.0182548 4284338278
143.9984 -10.45345 -5.1782765 4284338278
144.11203 -10.671953 -5.2144971 4284338278
141.77464 -9.8703041 -4.4848051 4284338278
142.10245 -10.303946 -4.5980906 4284338278
142.36816 -10.681015 -4.6860213 4284338278
142.68076 -11.113044 -4.7881041 4284338278
143.21016 -11.7836 -4.9577293 4284338278
143.87614 -12.61227 -5.1684709 4284338278
144.62982 -13.550282 -5.4029818 4284338278
146.05315 23.31189 -6.2391958 4284338278
144.23999 -9.8532352 -5.3785219 4284338278
143.93144 -9.7090712 -5.2746081 4284338278
144.05478 -9.9283438 -5.3161864 4284338278
143.97978 -9.9778919 -5.2922492 4284338278
144.1575 -10.247571 -5.3516631 4284338278
142.90431 -9.2594957 -4.9309487 4284338278
143.67154 -10.275991 -5.1807775 4284338278
141.81274 -9.9154406 -4.586154 4284338278
142.14989 -10.356993 -4.7094712 4284338278
142.41386 -10.732184 -4.8001013 4284338278
142.73489 -11.173382 -4.9081755 4284338278
143.27335 -11.854097 -5.0856686 4284338278
143.95844 -12.704109 -5.3085494 4284338278
144.72316 -13.654988 -5.5535626 4284338278
145.59825 22.654116 -6.1980758 4284338278
145.59659 -10.083167 -5.9772229 4284338278
143.57608 -9.6329021 -5.2663293 4284338278
143.4424 -9.6265392 -5.2213311 4284338278
141.88666 -10.008062 -4.681335 4284338278
142.21008 -10.424095 -4.8247132 4284338278
142.47157 -10.79652 -4.9181428 4284338278
142.79793 -11.243742 -5.0312095 4284338278
143.34192 -11.930964 -5.2155223 4284338278
144.04846 -12.804654 -5.4521356 4284338278
144.89336 -13.843319 -5.7318792 4284338278
141.47716 17.78087 -4.8522635 4284338278
143.05495 20.128513 -5.4625945 4284338278
143.03415 19.998505 -5.4512167 4284338278
145.63707 -9.9737988 -6.1404433 4284338278
145.01842 -9.6312933 -5.9099245 4284338278
144.3427 -9.2272348 -5.6671829 4284338278
143.52032 -8.6994429 -5.3663173 4284338278
142.23589 -10.457334 -4.9255733 4284338278
142.50421 -10.83587 -5.0261078 4284338278
142.88069 -11.336364 -5.1599112 4284338278
143.4563 -12.05739 -5.3615766 4284338278
144.12592 -12.892376 -5.5916939 4284338278
144.99055 -13.953477 -5.8856483 4284338278
142.32985 19.38065 -5.2853389 4284338278
142.32008 19.269293 -5.2893896 4284338278
142.27078 19.099522 -5.2690492 4284338278
142.22839 18.941824 -5.2499084 4284338278
142.29494 18.953579 -5.271771 4284338278
142.93613 19.849277 -5.5115418 4284338278
144.45024 22.0686 -6.0908589 4284338278
145.59496 -9.9414349 -6.2576842 4284338278
145.0043 -9.6226387 -6.0288701 4284338278
144.4324 -9.3018827 -5.8151011 4284338278
142.16747 -10.397558 -4.9839644 4284338278
142.33438 -10.669094 -5.0499706 4284338278
142.81425 -11.276105 -5.227098 4284338278
143.5276 -12.138567 -5.4929461 4284338278
144.36446 -13.155584 -5.7871356 4284338278
145.05188 -14.025112 -6.0275807 4284338278
143.8463 22.29254 -6.0080538 4284338278
143.01859 20.853893 -5.6797433 4284338278
142.78569 20.381592 -5.5882158 4284338278
142.68149 20.119726 -5.5435114 4284338278
142.56972 19.848082 -5.4943361 4284338278
142.46516 19.589792 -5.4475474 4284338278
142.3774 19.35931 -5.4081335 4284338278
142.30511 19.154194 -5.3755903 4284338278
142.26425 18.998667 -5.3565216 4284338278
142.34641 19.0341 -5.3855138 4284338278
142.58679 19.312576 -5.47401 4284338278
143.08691 19.984312 -5.6650801 4284338278
145.62569 -9.9572639 -6.4110627 4284338278
144.60809 -9.2874823 -6.0450745 4284338278
143.49451 -8.5410976 -5.621954 4284338278
142.8553 -8.1566668 -5.3678589 4284338278
142.41742 -7.9107313 -5.2041578 4284338278
142.53357 -8.119957 -5.2274227 4284338278
142.0482 -10.280232 -5.0309076 4284338278
142.1089 -10.438823 -5.0595894 4284338278
142.41327 -10.860234 -5.1719885 4284338278
142.80775 -11.384455 -5.3156729 4284338278
144.16374 -12.948757 -5.8192544 4284338278
144.56062 -13.49853 -5.963172 4284338278
145.09456 -14.206345 -6.1559997 4284338278
142.99529 20.81591 -5.773458 4284338278
142.8259 20.447016 -5.7016287 4284338278
142.72401 20.188395 -5.6573806 4284338278
142.61203 19.916006 -5.6073799 4284338278
142.50385 19.651722 -5.5581989 4284338278
142.41731 19.422796 -5.5187349 4284338278
142.35362 19.230293 -5.4904094 4284338278
142.32228 19.089134 -5.4749303 4284338278
142.37529 19.079754 -5.4909806 4284338278
142.56737 19.284094 -5.5611067 4284338278
143.06395 19.950891 -5.754128 4284338278
146.17596 23.993534 -6.9217668 4284338278
144.75771 -9.4041815 -6.2239032 4284338278
143.63971 -8.6545229 -5.7907915 4284338278
142.60753 -7.9607248 -5.3803501 4284338278
142.43886 -7.9301682 -5.3129992 4284338278
142.29723 -7.9190707 -5.2552218 4284338278
142.23697 -7.9740443 -5.2258272 4284338278
142.24118 -8.0799007 -5.2228785 4284338278
141.74757 -7.7680712 -5.0318708 4284338278
141.9801 -10.213449 -5.1000714 4284338278
141.92027 -10.243133 -5.086565 4284338278
141.98138 -10.403378 -5.1128559 4284338278
142.41264 -10.963533 -5.273263 4284338278
143.70796 -12.463278 -5.7585282 4284338278
144.27162 -13.189433 -5.970458 4284338278
144.43793 -13.490577 -6.0319881 4284338278
144.71666 -13.920691 -6.132586 4284338278
143.07817 20.949886 -5.9080892 4284338278
142.88208 20.53756 -5.8237357 4284338278
142.78192 20.281027 -5.7799182 4284338278
142.65723 19.988363 -5.7228436 4284338278
142.56065 19.741335 -5.6794662 4284338278
142.46001 19.490412 -5.6318808 4284338278
142.39728 19.298817 -5.6040378 4284338278
142.36327 19.153391 -5.586596 4284338278
142.40637 19.128265 -5.5993605 4284338278
142.63745 19.393164 -5.6849823 4284338278
143.22893 20.205202 -5.9194345 4284338278
144.93848 -9.5428076 -6.4202857 4284338278
144.01031 -8.9422121 -6.0531521 4284338278
142.56648 -7.9298086 -5.4674873 4284338278
142.48051 -7.964232 -5.4322009 4284338278
142.33275 -7.9489641 -5.370286 4284338278
142.15152 -7.9001341 -5.3000765 4284338278
142.08862 -7.9484997 -5.2728171 4284338278
141.73645 -7.7579947 -5.1267414 4284338278
141.93739 -10.171782 -5.1802435 4284338278
141.8815 -10.205412 -5.1672897 4284338278
141.95097 -10.374357 -5.1969771 4284338278
142.15714 -10.692278 -5.2767758 4284338278
142.31949 -10.965632 -5.3414702 4284338278
142.60826 -11.38068 -5.4525394 4284338278
143.31526 -12.260549 -5.7225933 4284338278
143.59413 -12.679733 -5.8279481 4284338278
144.4131 -13.708318 -6.1362839 4284338278
144.04198 -13.414223 -5.9877944 4284338278
144.40675 23.186701 -6.6063995 4284338278
143.16698 21.093327 -6.0467954 4284338278
142.94514 20.638628 -5.9510784 4284338278
142.8358 20.367191 -5.9018793 4284338278
142.71399 20.0784 -5.8457561 4284338278
142.60997 19.819241 -5.7982097 4284338278
142.51353 19.573801 -5.7535625 4284338278
142.43739 19.3613 -5.7182822 4284338278
142.39496 19.20274 -5.6962814 4284338278
142.41219 19.137592 -5.6980362 4284338278
142.51675 19.205467 -5.738997 4284338278
143.51692 20.646904 -6.1412225 4284338278
145.03131 -9.6151314 -6.5823994 4284338278
144.16728 -9.0650148 -6.233438 4284338278
143.06139 -8.3160601 -5.777596 4284338278
142.74519 -8.1736631 -5.6454921 4284338278
142.43304 -8.0314188 -5.5116911 4284338278
142.23712 -7.9729552 -5.4319987 4284338278
142.15269 -8.0044899 -5.3952847 4284338278
141.82643 -7.8353066 -5.2577963 4284338278
141.86031 -10.092194 -5.2496052 4284338278
141.8396 -10.163896 -5.2469425 4284338278
141.90871 -10.332089 -5.2770948 4284338278
142.08968 -10.622819 -5.348599 4284338278
142.28091 -10.927231 -5.4252815 4284338278
142.55696 -11.328164 -5.5338788 4284338278
143.13962 -12.070368 -5.7630014 4284338278
143.31943 -12.377171 -5.8343315 4284338278
143.65135 -12.85768 -5.9637694 4284338278
143.78284 -13.11641 -6.0189924 4284338278
145.0209 -14.635828 -6.4998503 4284338278
143.30692 21.317879 -6.2123771 4284338278
142.9814 20.696924 -6.0674224 4284338278
142.88199 20.440847 -6.0221157 4284338278
142.76477 20.158674 -5.9677367 4284338278
142.65697 19.893238 -5.917491 4284338278
142.55058 19.631971 -5.8672829 4284338278
142.46838 19.409342 -5.8298192 4284338278
142.41081 19.227503 -5.7997065 4284338278
142.38904 19.101843 -5.7852077 4284338278
142.32079 18.903286 -5.7554226 4284338278
142.25534 18.711693 -5.7227402 4284338278
145.28674 -9.8072796 -6.8199997 4284338278
144.66827 -9.4512043 -6.5645871 4284338278
144.23283 -9.2283077 -6.3850889 4284338278
143.38969 -8.6797152 -6.0282254 4284338278
142.65042 -8.2055359 -5.706799 4284338278
142.42253 -8.124547 -5.6101394 4284338278
142.30807 -8.1335335 -5.5596027 4284338278
141.97336 -7.9600887 -5.4139338 4284338278
141.78471 -10.012105 -5.3215566 4284338278
141.66049 -9.9742832 -5.2768302 4284338278
141.82924 -10.249123 -5.3435435 4284338278
141.93997 -10.463045 -5.3900728 4284338278
142.20758 -10.850361 -5.4960957 4284338278
142.48364 -11.250832 -5.6069589 4284338278
143.06842 -11.995204 -5.841435 4284338278
143.24359 -12.295994 -5.9129734 4284338278
143.48238 -12.670533 -6.0107017 4284338278
143.73053 -13.059788 -6.1123438 4284338278
144.76889 -14.35318 -6.5232329 4284338278
143.0204 20.759373 -6.1863093 4284338278
142.93343 20.522577 -6.146245 4284338278
142.81468 20.237707 -6.0898008 4284338278
142.70258 19.9652 -6.0364809 4284338278
142.59805 19.705942 -5.9877162 4284338278
142.50739 19.469906 -5.9452472 4284338278
142.438 19.269211 -5.9100418 4284338278
142.37656 19.082035 -5.8780093 4284338278
142.27112 18.826965 -5.8300009 4284338278
142.03088 18.368343 -5.7209334 4284338278
145.42696 -9.9193916 -7.0027452 4284338278
144.96721 -9.6877699 -6.8094697 4284338278
144.64568 -9.5585384 -6.6727085 4284338278
143.71768 -8.9427185 -6.2766967 4284338278
143.28665 -8.7156391 -6.0846171 4284338278
143.19394 -8.749485 -6.0443683 4284338278
142.97472 -8.6810188 -5.9461207 4284338278
142.45973 -8.3659582 -5.7181721 4284338278
141.84401 -10.076851 -5.4407578 4284338278
141.54904 -9.8568935 -5.3294749 4284338278
141.75685 -10.173808 -5.4111934 4284338278
141.87347 -10.393765 -5.4604993 4284338278
142.1476 -10.787912 -5.5710597 4284338278
142.34291 -11.098332 -5.6540704 4284338278
142.77559 -11.672275 -5.8354321 4284338278
143.00447 -12.030444 -5.9297171 4284338278
143.29176 -12.457957 -6.0478206 4284338278
143.62944 -12.947601 -6.1859646 4284338278
144.41853 -13.956983 -6.5054641 4284338278
143.09711 20.881199 -6.3253574 4284338278
143.00513 20.636164 -6.2813416 4284338278
142.87804 20.337799 -6.2194614 4284338278
142.75662 20.050293 -6.1604962 4284338278
142.65994 19.802156 -6.116241 4284338278
142.56129 19.553333 -6.0690389 4284338278
142.48599 19.342478 -6.0319929 4284338278
142.39125 19.104839 -5.9811654 4284338278
142.23994 18.777948 -5.9148078 4284338278
142.01985 18.35247 -5.8075371 4284338278
145.49306 -9.9767818 -7.1532478 4284338278
145.0891 -9.789856 -6.9791622 4284338278
144.76448 -9.6602821 -6.836967 4284338278
144.37634 -9.4742889 -6.6674047 4284338278
143.76831 -9.1098242 -6.3959842 4284338278
143.63844 -9.1195202 -6.3365188 4284338278
143.34059 -8.9895086 -6.2033567 4284338278
142.71857 -8.5869989 -5.9267774 4284338278
143.69389 -9.9788446 -6.3219514 4284338278
144.16208 -12.272454 -6.4991856 4284338278
143.20094 -11.383863 -6.1125531 4284338278
141.11143 -9.3015966 -5.2499566 4284338278
141.43211 -9.7346554 -5.3761783 4284338278
141.54938 -9.9525232 -5.4249148 4284338278
141.68082 -10.18687 -5.480957 4284338278
142.00804 -10.637847 -5.6143627 4284338278
142.18858 -10.930516 -5.6937251 4284338278
142.56706 -11.443435 -5.8565826 4284338278
142.83334 -11.841571 -5.9679322 4284338278
143.18279 -12.338099 -6.1127009 4284338278
143.54222 -12.851277 -6.2630558 4284338278
144.0677 -13.559436 -6.482348 4284338278
143.18289 21.017872 -6.4689898 4284338278
143.09981 20.785946 -6.4291897 4284338278
142.95479 20.45886 -6.3568578 4284338278
142.83069 20.16625 -6.296361 4284338278
142.74686 19.936865 -6.2591815 4284338278
142.63707 19.670376 -6.2049675 4284338278
142.54747 19.436983 -6.1600962 4284338278
142.42403 19.152836 -6.0996647 4284338278
142.26154 18.810045 -6.0230341 4284338278
142.10962 18.484592 -5.9548535 4284338278
145.56139 -10.037873 -7.3037295 4284338278
