# .PCD v0.7 - Point Cloud Data file format
VERSION 0.7
FIELDS x y z rgb
SIZE 4 4 4 4
TYPE F F F U
COUNT 1 1 1 1
WIDTH 1086
HEIGHT 1
VIEWPOINT 0 0 0 1 0 0 0
POINTS 1086
DATA ascii
-0.29831207 -0.11912712 5.855639 4280296747
-0.20525032 -1.2039303 6.322619 4279967269
-0.34514341 0.43369713 5.6233659 4292157994
-0.14471571 -2.3190188 6.5189061 4292223530
-0.2256193 -0.97617459 6.2178864 4280083711
-0.35500136 0.81506491 5.6429577 4280346111
-0.28845751 -0.62016964 5.8043461 4280803839
-0.3159225 0.45453653 5.8637867 4292748323
-0.25220168 -0.84325427 6.0383558 4279953151
-0.35782769 0.90310234 5.6434417 4292666879
-0.21344715 -0.21374251 6.5146079 4279822847
-0.25811547 -0.25370347 6.1444049 4279836966
-0.21879002 0.050617035 6.5409331 4279690749
-0.21627469 -0.28932422 6.4722314 4279968045
-0.2256193 -0.97617459 6.2178864 4280084735
-0.29450211 -0.19144715 5.8672023 4292945962
-0.24596091 0.17019323 6.3534055 4279642159
-0.15491903 -1.7361755 6.5889463 4292286499
-0.19756454 -1.2801496 6.3647823 4292404479
-0.22445495 -0.026507672 6.4743729 4292942628
-0.25053898 -0.61520594 6.111207 4293073442
-0.30708316 0.014469861 5.8195457 4292600319
-0.17376578 -0.11740991 6.8588858 4279625215
-0.25220168 -0.84325427 6.0383558 4279902492
-0.35558096 0.87316221 5.6536808 4292435534
-0.34588584 0.47021118 5.6268253 4280494894
-0.36340189 0.60664374 5.5211177 4280674303
-0.30462953 0.034258164 5.8444905 4292625767
-0.16787747 -0.1698772 6.892241 4292209407
-0.33972448 0.74557257 5.7482905 4292485676
-0.21602358 -1.9069504 6.0526595 4291816703
-0.29227751 -0.15939987 5.8934169 4292616737
-0.18194889 -1.2405134 6.5013604 4279444521
-0.19214354 -1.6767838 6.3046002 4292356905
-0.34514341 0.43369713 5.6233659 4292207871
-0.17087486 -1.1096451 6.6238041 4279710270
-0.30462953 0.034258164 5.8444905 4292665081
-0.23120591 -0.0034257418 6.4263229 4279838509
-0.25409877 -1.0084475 5.9792466 4280083967
-0.54247302 0.90508127 4.2271752 4292797951
-0.2649357 0.37798095 6.2542853 4292879402
-0.28519756 -0.6574859 5.8208857 4292158254
-0.29831207 -0.11912712 5.855639 4280345855
-0.25783473 -0.32908684 6.1275606 4292680738
-0.29195243 -0.14772633 5.8991671 4292791401
-0.23391762 -1.2759957 6.0725827 4292208895
-0.26003322 0.32757196 6.2805338 4292944163
-0.22710173 0.53189707 6.5984507 4279691007
-0.25595054 1.1261207 6.5207562 4279428095
-0.35643557 0.74330819 5.6127067 4280230182
-1.8004413 0.20386928 -5.7135448 4280033817
-0.24969934 -0.7504741 6.0825105 4292680739
-0.35580888 0.4781625 5.5489845 4280936191
-0.24969934 -0.7504741 6.0825105 4292682025
-0.21748744 -0.5621044 6.3913889 4292865535
-0.23674153 -1.5685787 5.9735689 4279707427
-0.24291557 -1.0851216 6.0500555 4292353573
-0.21372016 -0.27349839 6.4967275 4292880431
-0.15609452 -1.241599 6.708117 4278855726
-0.25041297 -1.0821569 5.9901214 4292351262
-0.25257337 -0.45042422 6.1374207 4292666110
-0.30148908 0.11642572 5.8909507 4292747801
-0.15692383 -0.76078719 6.8264394 4292274431
-0.26861173 0.034183171 6.1349721 4279835686
-0.33484963 0.73032713 5.783515 4279836713
-0.20182876 -2.0490484 6.1291318 4291679743
-0.17176555 -0.21459052 6.8494844 4278723629
-0.20671321 -1.9201121 6.1228576 4279510569
-0.26196402 0.32933974 6.2654471 4279559679
-0.28876308 -0.69804507 5.781004 4292222489
-0.24103595 -0.96701062 6.09583 4279772460
-0.17718038 -1.4584142 6.4826097 4279757311
-0.31162044 0.40642589 5.8859076 4293010987
-0.17718038 -1.4584142 6.4826097 4279708715
-0.21217978 -1.512181 6.1860509 4292288300
-0.27533695 -0.31722283 5.9887037 4280148991
-0.25049144 -0.20381653 6.2185092 4292747303
-0.2439685 -1.218015 6.0067244 4292535295
-0.2439685 -1.218015 6.0067244 4292483100
-0.16459823 -0.26832327 6.8930573 4279233279
-0.26473773 -0.08502119 6.1351027 4292862718
-0.21372016 -0.27349839 6.4967275 4292878887
-0.13690801 -2.284049 6.590692 4292339199
-0.30882385 0.44825289 5.9193487 4292614690
-0.20979682 -0.89554304 6.3661823 4279707173
-0.19406752 -1.2873017 6.3912134 4292863487
-0.27877843 -0.73895925 5.8510523 4280166183
-0.22766402 -0.87234664 6.2285147 4279705643
-0.22592624 0.35721371 6.5628676 4278445565
-0.28430137 0.10716416 6.0278211 4279953151
-0.21128406 -0.69858319 6.4060206 4279970100
-0.10872671 -1.721539 6.9638367 4279494655
-0.31170201 0.44606385 5.895453 4292683822
-0.22094767 -0.032614402 6.5011649 4292273150
-0.24103595 -0.96701062 6.09583 4279771177
-0.29734072 -0.56925428 5.7454638 4280477439
-0.22483468 0.34097588 6.5672498 4279575072
-0.26473773 -0.08502119 6.1351027 4292862207
-0.13136016 -1.5261856 6.8336883 4279377702
-0.23549569 -1.6155024 5.970881 4279968803
-0.2346694 -1.7507584 5.9425426 4291587960
-0.16400959 -0.34248143 6.8786807 4279428607
-0.23704171 -0.35894325 6.2871895 4279493119
-0.262501 0.024517689 6.1816025 4279952127
-0.38160604 1.1496805 5.5168996 4280162854
-0.20523366 -1.0513024 6.3627758 4280295208
-0.22843093 -0.035643641 6.4403081 4278787359
-0.29195243 -0.14772633 5.8991671 4292798207
-0.16446465 -0.53372765 6.8257899 4279559167
-0.27797088 -0.94018459 5.8044114 4280097825
-0.14041756 -2.326407 6.5514483 4292207871
-0.23729518 -1.1819466 6.0699329 4292484644
-0.56950486 0.89693385 4.0154915 4292747818
-0.15655495 -1.0565071 6.7519603 4292042059
-0.20409408 -1.0894116 6.3618407 4292863487
-0.26668459 -0.038472779 6.131237 4280430639
-0.23668729 -1.3761511 6.0235815 4292273151
-0.27952245 0.10466133 6.0653124 4292666879
-0.30989376 0.36374301 5.8888602 4280097826
-2.0259988 1.4404165 -7.1490626 4279704357
-0.34534267 0.6363523 5.6736383 4279901992
-0.090719081 -2.2812333 6.9626265 4279574827
-0.24780823 -0.84772742 6.0724525 4292471039
-0.32049325 0.55051702 5.8523088 4292877350
-0.1390332 -2.2117963 6.5922027 4279639588
-0.34122336 0.33112851 5.6281219 4292615454
-0.29227751 -0.15939987 5.8934169 4292665855
-0.1480898 -1.610725 6.677175 4279705381
-0.42297658 1.8779508 5.3722739 4284754727
-0.35081908 0.63527811 5.6297507 4292483869
-0.35291737 0.43371618 5.5604739 4292352800
-0.22669418 0.79282588 6.6700301 4292095280
-0.27533695 -0.31722283 5.9887037 4280149503
-0.22504172 0.7483142 6.6724815 4279839276
-0.25155365 -1.0067132 6.0003572 4279966244
-0.20819081 -1.1802617 6.305069 4279640107
-0.22761676 0.49062485 6.5838556 4292470271
-0.22396439 -0.53700012 6.3460193 4279885823
0.18507898 -1.3826504 9.3447523 4279428607
-0.23398615 -0.46102434 6.2848377 4279756799
-0.076275833 -2.5784583 7.0014777 4291715157
-0.24788913 -0.74991596 6.0972152 4279706919
-0.20523366 -1.0513024 6.3627758 4280295721
-0.13049331 -1.0968041 6.9517641 4292091173
-0.26469693 -0.47278982 6.0337105 4280296738
-0.1893039 -1.8964962 6.270998 4280098853
0.094486825 -1.2371224 8.6825485 4285145642
-0.10778148 -1.4700264 7.0377946 4279508265
-1.4832734 1.1337522 -3.0216498 4279429119
-0.34705102 0.31109366 5.5755696 4280818468
-0.21765438 -0.13573709 6.5010409 4279625215
-0.23398615 -0.46102434 6.2848377 4279752443
-0.18194889 -1.2405134 6.5013604 4279442986
-0.20230468 -1.227095 6.3404608 4292566864
-0.15399574 -1.6851604 6.6097326 4292419364
-0.25909078 0.28092867 6.2758307 4292745500
-0.2002337 -1.6180422 6.2549567 4292536319
-0.093942553 -2.0350833 7.0016322 4279493118
-0.22356018 0.0053763073 6.4896321 4280149503
-0.58736324 1.4114926 3.9956036 4279358716
-0.22710173 0.53189707 6.5984507 4279689215
-0.23367807 0.36962482 6.5045156 4279837483
-0.32384548 0.12817816 5.7147527 4280100648
-0.29809529 0.11916936 5.9190059 4280099109
-0.13000432 -1.3117063 6.89923 4279459146
-0.10679829 -1.8570287 6.9445562 4292006385
-0.28845751 -0.62016964 5.8043461 4280804351
-0.10122818 -2.3033988 6.8724475 4292470015
-0.10881244 -1.7532033 6.9554353 4278641663
-0.55440611 1.5137637 4.2757964 4279887871
-0.20379287 -1.0052006 6.3859096 4292487723
-0.20541431 -0.81154132 6.4235129 4293275450
-0.15682553 -0.83583426 6.8075671 4292091687
-0.230014 -1.6703705 6.0008135 4280295208
-0.28456411 0.20247568 6.0501442 4280060586
-0.16952485 -0.4182567 6.8136277 4279492095
-0.24547313 -1.0163511 6.0473061 4279834659
-0.16459823 -0.26832327 6.8930573 4279184169
-0.23400933 0.68181008 6.5821991 4279493631
-0.23054104 -1.7153723 5.9853001 4279964955
-0.25871775 0.28831354 6.281014 4279311394
-0.26469693 -0.47278982 6.0337105 4280298279
-0.22990304 -0.46960941 6.315547 4292796147
-0.30138722 -0.0075417934 5.859797 4280556576
-0.22495018 0.30447257 6.5569301 4292157742
-0.36148316 0.93690509 5.6227431 4279951615
-0.35195208 0.78076243 5.6594977 4284033072
-1.3660569 0.81544811 -2.1876843 4279250469
-0.22396439 -0.53700012 6.3460193 4279839527
-2.0259988 1.4404165 -7.1490626 4279704874
0.016921813 -0.65206605 8.2075005 4279771438
-0.22396439 -0.53700012 6.3460193 4279836456
-3.4944825 -0.16961533 -18.946268 4279952639
-0.22177719 -1.837428 6.0242171 4279771945
-0.35346174 0.52025425 5.5790095 4280757797
-0.10198686 -1.6787643 7.0306406 4279315504
-0.29543713 -0.47959971 5.7846255 4292287007
-0.23333333 -0.8532548 6.1880212 4292680736
-0.35108757 0.89386946 5.6955047 4292418338
-0.24060497 -0.9576174 6.1013393 4280082943
-0.098425619 -1.496248 7.1063251 4279640107
-0.25668368 -0.22754522 6.1627164 4293191423
-0.18495396 -2.1656475 6.2350335 4291897380
-0.24497063 1.0305684 6.5852804 4291959327
-0.53519732 0.67638153 4.2272511 4294043135
-0.34534267 0.6363523 5.6736383 4279917895
-0.22766402 -0.87234664 6.2285147 4279718247
-0.037011668 -2.6107371 7.3088899 4278592298
-0.20409408 -1.0894116 6.3618407 4292861951
-0.22627228 0.88790816 6.6981034 4280231464
-1.4846585 1.194175 -3.016993 4279510052
-0.22350289 -1.3888484 6.1272349 4292156450
-0.18128216 -0.038895871 6.818357 4279491071
-0.25897196 -0.55499291 6.0588837 4292876830
-0.23761125 0.84342319 6.5957046 4279508521
-0.18723713 -1.865388 6.2951198 4292352546
-0.23110892 0.68938267 6.607841 4291879422
-0.28390756 -0.67010635 5.827374 4292226856
-0.24001928 -1.2902412 6.0194674 4280084223
-0.35548708 0.56796908 5.5749097 4292418592
-0.21155319 -0.56938392 6.4369922 4292746272
-1.4722168 0.88905269 -2.9957657 4279640358
-1.4846585 1.194175 -3.016993 4279509802
-0.10990028 -1.7732188 6.9415302 4292075512
-1.8004413 0.20386928 -5.7135448 4280035628
-0.16217765 -1.1393156 6.6853628 4292419108
-0.2619856 -0.04490076 6.1677723 4279900444
-0.19197144 -2.1572723 6.1805444 4292077567
-0.34705102 0.31109366 5.5755696 4280822315
-0.092065215 -2.2172 6.96842 4291830310
-0.17087486 -1.1096451 6.6238041 4279705380
-0.18642901 0.11982502 6.8200207 4279495423
-0.24898528 -1.0315328 6.0150709 4292339711
-0.22350289 -1.3888484 6.1272349 4292155424
-0.21388388 -0.62973952 6.4028325 4279757055
-0.36163822 1.0108839 5.6410284 4292275199
-0.19953378 -0.81313133 6.4702826 4292602111
-0.28390756 -0.67010635 5.827374 4292271865
-0.14041756 -2.326407 6.5514483 4292157728
-0.13049331 -1.0968041 6.9517641 4292143615
-0.22094767 -0.032614402 6.5011649 4292273407
-0.2019482 -0.71691734 6.4760466 4280084735
-0.084075809 -2.4093213 6.9826503 4279428351
-0.22177719 -1.837428 6.0242171 4279770917
-0.21854258 -0.012381339 6.5255704 4279840308
-0.11587402 -2.1759436 6.7876601 4279640874
-0.068602547 0.12437737 7.696434 4280172629
-0.1595753 -1.0573683 6.7293606 4279559932
-0.16159542 -0.71925819 6.7997947 4278905599
-0.20230468 -1.227095 6.3404608 4292598783
-0.07174848 -2.2477889 7.124979 4279508000
-0.23729518 -1.1819466 6.0699329 4292532981
-0.1383698 -2.283143 6.5790296 4278970623
-0.088853396 -2.4629562 6.9300179 4278394919
-0.34928256 0.53491348 5.6154923 4292403967
-0.24291557 -1.0851216 6.0500555 4292404991
-0.1907323 -1.8952693 6.259203 4280084735
-0.29809529 0.11916936 5.9190059 4280098339
-0.23098855 -1.8264831 5.9522614 4280476671
-0.25517115 -0.12423441 6.2020764 4279952895
-0.19663583 -0.83918703 6.487205 4279838756
-0.20011514 -1.2760562 6.3454785 4278721062
-0.20193598 -1.0097812 6.4003377 4279770136
-0.24610651 -0.69630855 6.1262383 4280018943
-4.0506907 4.350698 -22.203712 4279379491
-0.30882385 0.44825289 5.9193487 4292618019
-0.2229687 -0.035126522 6.4843392 4279116332
-0.34754053 0.36967367 5.5866776 4292288041
-0.29390845 -0.075667113 5.9017825 4280085247
-0.17039394 -1.5757842 6.5065217 4292357168
-0.19832858 -1.7101928 6.2465763 4279510567
-0.20249747 -1.6148896 6.2375717 4279691263
-0.11587402 -2.1759436 6.7876601 4279691007
-0.21928914 -1.5148325 6.1291156 4279690495
-0.18557887 -0.92251128 6.5545979 4279757823
-3.2785666 1.6900517 -16.779987 4279820799
-0.1622901 -0.75790268 6.7838836 4279034875
-0.149129 -1.2902318 6.7515469 4279637791
-0.039549015 -2.4170277 7.3387847 4291876863
-0.19335848 -1.3339353 6.3848252 4292615203
-0.29316971 -0.17768641 5.881402 4280166700
-0.19996035 -1.3462932 6.3281775 4279905070
-0.8306033 0.026246257 1.7773929 4289455359
-0.29543713 -0.47959971 5.7846255 4292288294
-0.2439685 -1.218015 6.0067244 4292485158
-0.19119562 -1.9553832 6.2392416 4279452725
-0.22682025 1.3569131 6.8152699 4284148735
-0.21155946 -1.0853287 6.3029304 4279901220
-0.16458011 -0.58051544 6.8115911 4279557631
-0.2127768 -0.26749793 6.5060191 4279297531
-0.19730274 -1.667226 6.2655396 4279493887
-0.20479786 -0.27611262 6.5673933 4292484128
-3.4944825 -0.16961533 -18.946268 4279902509
-0.21928914 -1.5148325 6.1291156 4279690751
-0.35692877 0.85149509 5.6373253 4292680225
-0.10990028 -1.7732188 6.9415302 4292028452
-0.19406752 -1.2873017 6.3912134 4292863484
-0.084916726 -2.5081537 6.9506207 4291334306
-0.35155311 0.75254911 5.6538763 4292221977
-0.28798077 -0.74243683 5.7756147 4280739071
-0.15672968 -1.4799256 6.6421819 4292274687
-0.19663583 -0.83918703 6.487205 4279834399
-0.18557887 -0.92251128 6.5545979 4279706148
-0.12002227 -2.0604923 6.7848749 4279376419
-0.16777474 -0.31641588 6.8550062 4292221974
-0.12002227 -2.0604923 6.7848749 4279378206
-0.10778148 -1.4700264 7.0377946 4279522923
-0.23685291 -1.6576109 5.9494753 4280624942
-0.19119562 -1.9553832 6.2392416 4279442465
-0.35018799 0.83983725 5.6888022 4292484641
-0.18723713 -1.865388 6.2951198 4292353569
-0.22842255 0.3916218 6.5517402 4292076543
-0.81616873 0.16415039 1.9235313 4289600286
-0.35643557 0.74330819 5.6127067 4280230693
-0.14658478 -1.8778796 6.6194506 4279102207
-0.2477255 -1.1245201 6.0010571 4280164648
-0.30313981 -0.45249614 5.7292233 4280672767
-0.20317392 0.14784558 6.6908503 4292025638
-0.18721053 -2.0722163 6.2414956 4291962152
-0.42602402 -0.47871789 4.819623 4279311910
-0.29468659 -0.29252914 5.8391614 4292533759
-0.16787747 -0.1698772 6.892241 4292157989
-0.16519991 -0.61608261 6.7976031 4292601199
-0.3510392 0.43116668 5.5749454 4281131263
-0.21202604 0.2247081 6.6399627 4279507494
-0.20011514 -1.2760562 6.3454785 4278772991
-0.078610577 -1.882841 7.1732464 4284931839
-0.22389537 -0.082823001 6.4644713 4292548898
-0.18023418 -0.60318726 6.6813407 4279575592
-0.27539387 0.51217479 6.2048707 4279113246
-0.20479786 -0.27611262 6.5673933 4292488240
-0.068484627 -2.1566544 7.173852 4279312166
-0.10087642 -1.953463 6.9671087 4291944191
-0.12239163 -1.6474372 6.873641 4292093229
-1.5200394 0.25775889 -3.5191114 4279855987
-0.22256176 -1.1876037 6.1873651 4279429119
-0.048489492 -2.3641088 7.2806206 4279573026
-0.18520041 -2.2112064 6.2213202 4291518295
-0.26569286 0.34100533 6.2384319 4291683071
-0.055874754 -2.1635478 7.2749214 4279360508
-0.23296781 -1.7505007 5.9563503 4280407037
-0.23754549 -0.3497428 6.284337 4292549404
-0.2619856 -0.04490076 6.1677723 4279953151
-0.20197263 -1.6462177 6.2335529 4292089374
-0.34755749 0.47309476 5.6141562 4280491034
-0.25897196 -0.55499291 6.0588837 4292928254
-0.25961876 -0.091534935 6.1747875 4292682022
-0.34986201 0.85648102 5.6957455 4280032550
-0.14507034 -2.0199938 6.5931258 4279719490
-0.25014722 -0.23582107 6.2134557 4293028723
-0.22175975 -0.97945935 6.2481031 4292549154
-0.22495018 0.30447257 6.5569301 4292206591
-0.14064358 -0.97088069 6.9024963 4292027687
-0.097003475 -2.1001098 6.9587655 4279495679
-0.15491903 -1.7361755 6.5889463 4292336377
-0.16234532 -1.1084175 6.6921949 4279770650
-0.30132481 0.02116009 5.8677702 4292600319
-0.16419952 -0.66887766 6.7914257 4278721571
0.072121583 -1.479684 8.4481516 4285324284
-0.20379287 -1.0052006 6.3859096 4292536063
-0.068602547 0.12437737 7.696434 4280214783
-0.30017352 -0.053646371 5.8574481 4292797695
-0.25488165 0.25398886 6.3027573 4279836712
-0.21931061 0.22555622 6.5817146 4279690239
0.95710629 -4.3546672 14.555091 4279377445
-3.960999 5.6006813 -21.174633 4279625471
-0.37802014 -0.35053557 5.1987901 4279508515
-0.19251627 -2.1758175 6.1723695 4291502379
-0.3070662 0.29052517 5.8920875 4280211711
-0.78157961 0.051971398 2.1609921 4280081663
-0.15452985 -0.36379474 6.948884 4279507998
-0.35108757 0.89386946 5.6955047 4292459979
-0.20244502 -1.2743952 6.326992 4292811297
-0.063931152 -2.269702 7.1815543 4291813882
3.4213345 -3.2231655 34.038902 4279573542
-0.094930165 -1.4663132 7.1413994 4291896106
-0.27525094 0.050344229 6.085742 4280314739
-0.15465368 -1.2907609 6.7071214 4292272895
-0.54157656 0.76909232 4.1991425 4294435327
-0.16223484 -0.26875967 6.9118686 4292287259
-0.25409877 -1.0084475 5.9792466 4280084734
0.0057538105 -1.7055995 7.8748055 4284750624
-0.10450925 -1.5641121 7.0379863 4279382063
-0.26198584 -0.93322003 5.9357886 4292290092
-0.24788913 -0.74991596 6.0972152 4279704356
-0.24497063 1.0305684 6.5852804 4292010229
-0.063931152 -2.269702 7.1815543 4291814908
-0.23863831 -0.78587806 6.1624913 4280103212
-0.23124352 -1.7915972 5.9600787 4291420159
-0.085783795 -2.024092 7.0696263 4279364607
-0.23731579 -1.6700077 5.9416404 4280542463
-0.41532618 0.91996169 5.2197404 4281408284
-0.24619229 1.0692909 6.5858169 4279954431
-0.21764128 -0.37620407 6.4383788 4279888383
-0.30269441 0.072091714 5.8700886 4280215551
-3.2785666 1.6900517 -16.779987 4279771690
-0.20039274 0.56239176 6.8200135 4279638821
-0.20412226 -0.72045624 6.4574399 4292797183
-0.42307928 1.8763652 5.3710918 4284756268
-0.22444367 0.40093613 6.5861325 4293008167
-0.3604542 1.0797249 5.6682653 4279821567
-0.33633983 0.31683189 5.6631517 4280425254
-0.30989376 0.36374301 5.8888602 4280103212
-0.21674871 -0.52602512 6.4065018 4280082687
-0.10373565 -1.8781472 6.9640102 4279623935
-0.44773936 1.8641179 5.195034 4286114047
-0.19597197 -1.6032302 6.2934155 4279704606
-0.14109007 -1.9356356 6.6479793 4292142335
-0.23328118 0.79308599 6.617373 4291683327
-0.1783707 -0.1136712 6.822794 4291897114
-0.29847443 -0.51948547 5.7492371 4292159020
-0.20441981 -1.6119683 6.2228498 4292369491
-0.17077793 -2.078958 6.3734441 4279494655
-0.25909078 0.28092867 6.2758307 4292787673
-0.16112368 -1.6730224 6.5557928 4292406527
-1.6979363 -0.10006756 -4.9932613 4279821567
-0.081384033 -0.53272378 7.4723253 4279691519
-0.22428149 -1.8175894 6.0086579 4279818463
-0.31433454 0.45428228 5.8765736 4279752959
-0.091251053 -1.9853879 7.0354443 4292270846
-0.18813057 -1.374037 6.4164796 4280018431
-0.21355291 -0.23640117 6.5070634 4292223016
-0.17630933 -0.16347921 6.8261738 4278984992
0.43096715 -1.2508204 11.27739 4279507755
-0.34714222 0.40900606 5.6009884 4292535551
-0.217585 0.056441605 6.5506282 4292092718
-1.5200394 0.25775889 -3.5191114 4279835174
-0.22483468 0.34097588 6.5672498 4279576614
-0.13608202 -2.3276336 6.585959 4291488767
0.01209308 -0.54416084 8.2031994 4279376926
-0.23300399 -1.7925732 5.9453278 4280100654
-0.1622901 -0.75790268 6.7838836 4279016157
-0.22761676 0.49062485 6.5838556 4292470271
-0.15551749 -1.4170215 6.6675839 4279444510
-0.084916726 -2.5081537 6.9506207 4291304482
-0.42839062 -0.51244062 4.7938147 4279807171
-0.26735771 -0.62977213 5.9707274 4279901732
-0.18664931 -1.8101941 6.3142567 4279377701
0.02867135 3.3633265 9.2773504 4284276735
-0.26825911 -0.057939805 6.1136074 4279953151
-0.1536677 -1.2488002 6.7257237 4292403700
-0.28463921 -0.74969673 5.8011856 4280674303
-0.16164312 -1.1435679 6.6890335 4278836735
-0.25925863 -0.56244504 6.0544453 4280342783
-0.26735771 -0.62977213 5.9707274 4279949311
-0.2412388 1.0302947 6.6152372 4291896616
-0.18952011 -2.2499473 6.1763644 4291354367
-0.42139202 -0.48664692 4.8524556 4281132799
-0.11410183 -1.743593 6.9156356 4292157478
-5.4964705 0.035498004 -34.469231 4279967011
-0.081384033 -0.53272378 7.4723253 4279640872
-0.24185358 -1.6009842 5.9235935 4280934911
-0.19336031 -0.96109551 6.495265 4279510571
-0.18293385 -1.448397 6.4391818 4292484135
-0.17873409 -0.068363443 6.8316836 4292221215
-0.35346174 0.52025425 5.5790095 4280756259
-0.04741605 3.1240599 8.6274061 4283963937
-0.093981817 -2.2131665 6.9556899 4279361791
-0.10819596 -1.187129 7.1070628 4279625215
-0.31162044 0.40642589 5.8859076 4293059839
-0.60553771 0.68093181 3.6841431 4280818719
-0.11550474 -0.99356633 7.0982966 4279426303
-0.18721053 -2.0722163 6.2414956 4292011519
-2.5583472 3.5089791 -10.77713 4292026151
-0.35040623 0.51813871 5.6031928 4292353318
-0.17873409 -0.068363443 6.8316836 4292224294
-0.17077793 -2.078958 6.3734441 4279495167
-0.26735771 -0.62977213 5.9707274 4279903788
-0.15932074 -1.2220455 6.687397 4279638049
-0.78157961 0.051971398 2.1609921 4280033578
-0.23985121 -1.1739295 6.0516138 4279297022
-0.21128406 -0.69858319 6.4060206 4279970350
-0.41801569 -0.50161916 4.8748927 4289731367
-0.18571973 -1.8650732 6.3060265 4289586943
-0.048743464 -2.3959508 7.2715044 4291238690
-0.10864509 -1.2676201 7.0828929 4279382590
-0.34402922 -1.6095268 5.1824431 4282245119
-0.55131447 0.97313857 4.1757164 4292745764
-0.15562688 -1.7755177 6.5733385 4292273407
-0.19805549 -1.6766165 6.2579122 4279838494
-0.42865002 -0.46059459 4.8048692 4278986533
-0.098566361 -2.2807381 6.8994646 4279377959
-0.17175384 -1.9730545 6.3916469 4292207098
-0.15452985 -0.36379474 6.948884 4279559167
-0.16458011 -0.58051544 6.8115911 4279559676
-0.18293385 -1.448397 6.4391818 4292483872
-0.53501993 0.68422401 4.2313118 4281671463
-0.15323289 -1.7779558 6.5918918 4278919453
-0.23331276 -1.6598858 5.9773755 4291617791
-0.20085208 -0.80501282 6.4624782 4279181865
-0.041294385 -2.1912122 7.3816142 4279353056
-1.6666952 -1.1965184 -5.0057473 4282918437
-0.1630833 -0.84277868 6.7559233 4292157212
-0.26644346 0.32644916 6.2283683 4292721456
-0.23851757 -1.2014929 6.0538592 4292157467
-3.4557056 3.5680716 -17.697477 4279689727
-0.14349142 -1.3997641 6.7683015 4292536831
-0.13113371 -2.3872752 6.6102505 4292404479
-0.098171629 -1.349478 7.1450963 4279380264
-0.11389969 -1.0105059 7.1067605 4279625215
-0.6257937 0.72257423 3.5366676 4291830824
-0.24397789 -1.5568702 5.9178209 4291764781
-0.29466206 -0.54488164 5.7733536 4292105027
0.2364168 4.0121117 11.052132 4284226337
-0.16175289 -0.80574012 6.7757907 4279430143
-0.13608202 -2.3276336 6.585959 4291435558
-0.26569286 0.34100533 6.2384319 4291632167
-0.17175384 -1.9730545 6.3916469 4292208383
-0.1815411 -1.5532994 6.4244595 4279509034
-0.16777474 -0.31641588 6.8550062 4292240220
-0.30989376 0.36374301 5.8888602 4280097058
-0.24592173 -1.0831872 6.0261478 4279966746
-0.68192458 -0.1376604 2.8869042 4279886591
-0.24013136 0.88980842 6.5878406 4291895081
0.035556626 -0.76403773 8.3395205 4284618784
-0.24018864 -0.14753327 6.3169599 4279574568
-0.16787747 -0.1698772 6.892241 4292155939
-0.10161304 -1.853247 6.9869146 4279445031
-0.2412388 1.0302947 6.6152372 4291945471
-0.24018864 -0.14753327 6.3169599 4279574054
-0.33633983 0.31683189 5.6631517 4280425246
-0.23149851 0.88654536 6.6561861 4291634209
-3.8346386 3.1604481 -20.800808 4279508261
-0.092383794 -2.4062197 6.9170218 4279508516
-0.42602402 -0.47871789 4.819623 4279363071
-0.10821543 -1.7518259 6.9609237 4291815167
-0.10373565 -1.8781472 6.9640102 4279622393
-0.34755749 0.47309476 5.6141562 4280490012
-0.16130903 -0.7200979 6.8012037 4292289060
-0.036247671 -2.520493 7.338644 4279441182
-0.23634548 -1.6166326 5.9629984 4291765283
-0.27501616 0.47283396 6.197721 4279652423
-2.1526361 2.7759697 -7.8011642 4279560959
-0.21089506 -0.86730641 6.3921871 4284953136
-0.35722864 0.99869955 5.6729889 4279868842
-1.2555711 0.44001713 -1.4221363 4279490803
-0.20412226 -0.72045624 6.4574399 4292796415
-0.090881839 -2.3618946 6.9405794 4279052848
-0.30693966 0.35841915 5.9109845 4292730111
-2.1526361 2.7759697 -7.8011642 4279559679
-0.19251627 -2.1758175 6.1723695 4291553279
-0.25343654 -0.19330987 6.197742 4292995839
-0.82024342 -0.27184433 1.7817783 4279690239
-0.097337157 -2.0380824 6.9732413 4279473624
-0.24266998 -0.64739549 6.1630783 4292731899
-0.23120591 -0.0034257418 6.4263229 4279886334
-0.096173055 -1.464087 7.1317682 4278523421
-0.16278419 -0.65867716 6.8057704 4292158765
-0.24266998 -0.64739549 6.1630783 4292683302
-0.25002906 0.68743104 6.4543147 4279378734
-0.29543713 -0.47959971 5.7846255 4292287524
-0.22389537 -0.082823001 6.4644713 4292602111
-0.12378241 -1.1695155 6.9869547 4279706408
-0.039549015 -2.4170277 7.3387847 4291878911
-1.7529362 1.6053865 -5.0029101 4279376674
-0.15231515 -1.7413515 6.6086316 4292224814
-0.24585429 0.68021518 6.4895606 4279452524
-0.040834971 -2.4869397 7.3108158 4279427583
-0.37219471 1.2686266 5.6343803 4293190655
-0.1032514 -1.7696414 6.9955854 4291958550
-1.4209481 -0.20098038 -2.8673508 4279652405
-0.76642096 0.018375875 2.2704346 4279969325
-0.14109007 -1.9356356 6.6479793 4292141567
-0.16045822 -1.9956771 6.4749751 4279442216
-0.13874868 -1.891104 6.6786995 4292404991
-0.22842255 0.3916218 6.5517402 4292027941
-0.062042322 -2.3332412 7.1914306 4284409599
-0.21397783 -0.10355509 6.538681 4279835682
-0.16112368 -1.6730224 6.5557928 4292356903
-0.19368327 -1.6310083 6.3039856 4279638047
0.0019430756 -1.2128425 7.9465723 4279507232
-0.35500136 0.81506491 5.6429577 4280292897
2.1190591 -1.8774327 24.136408 4279775279
-0.25811547 -0.25370347 6.1444049 4279835939
-0.24585226 -0.95769221 6.0595508 4292468221
-0.22975236 -1.7285763 5.987184 4291715410
-0.21870996 0.25247166 6.5936742 4292402942
-0.24018864 -0.14753327 6.3169599 4279623160
-2.4438772 1.9912349 -10.254148 4292417046
-0.11750222 -1.7025526 6.8988156 4279576365
-0.16179232 -0.79993665 6.7773514 4292027948
-0.23668729 -1.3761511 6.0235815 4292222247
-0.18866056 -2.2248232 6.1897082 4279362815
-0.15609452 -1.241599 6.708117 4278869591
1.3588345 -2.3902802 18.215622 4279769634
-0.14902903 -1.8746876 6.600862 4279625727
0.8699187 -4.1584101 13.927388 4279442468
-0.35040623 0.51813871 5.6031928 4292400362
-0.42895141 -0.45613903 4.8032961 4288996351
-0.091251053 -1.9853879 7.0354443 4292226350
-0.35936928 0.55824745 5.5410576 4292208383
-0.22289491 -0.076273181 6.4742923 4278837754
-0.16262007 -0.31014562 6.8977184 4278656549
-0.001639914 -1.155473 7.9103894 4279887871
-0.35424262 0.47984555 5.5620403 4292483623
-0.20193598 -1.0097812 6.4003377 4279770661
-0.18365182 -1.8601223 6.3256993 4292075263
-0.21748744 -0.5621044 6.3913889 4292811810
-0.095728271 -2.3146727 6.9135356 4278510847
-0.24218886 1.0160745 6.6038737 4278838271
-0.19409299 -1.7661321 6.2657065 4292551464
-0.044784367 -2.5005481 7.275475 4278589986
9.3126421 -9.2639704 78.094002 4279769381
-1.7322509 1.8911349 -4.7659478 4279313443
-2.0047243 1.4056394 -6.9925423 4279703840
-0.36021501 0.56920409 5.5376306 4292076287
-0.30017352 -0.053646371 5.8574481 4292746787
-14.214279 16.579237 -98.147591 4292290340
-0.20438457 -0.71317101 6.4575815 4279558655
-0.24723633 -0.27539551 6.22679 4279819519
-0.20117654 -1.4219345 6.2996345 4292418858
-0.34643781 0.029104879 5.5512848 4279442469
-1.1817831 -0.00017655562 -0.95842659 4284867583
-0.20918749 -0.83364171 6.3878574 4279903780
4.1403909 -5.3753109 39.091824 4292288294
-0.36435282 1.0363744 5.6259665 4292683559
-0.10122818 -2.3033988 6.8724475 4292419098
-0.20541431 -0.81154132 6.4235129 4293320447
-1.2499964 0.26847205 -1.4209709 4279494655
-0.13002473 -2.4399788 6.6053762 4291826964
-0.55805463 -0.78976429 3.6958392 4279705898
-0.14534713 -1.9383523 6.6153016 4279723869
-0.68477643 -0.41959757 2.7956476 4279772971
-0.2392768 -1.2239404 6.0422974 4292287777
-0.13874868 -1.891104 6.6786995 4292353316
-1.4635332 0.3598873 -3.0562644 4279428863
-1.3492697 -0.24894522 -2.3209317 4279769889
-0.21646392 0.29724258 6.623158 4292288804
-0.15935801 -2.1064079 6.4564524 4291942904
-0.26203904 -0.51204729 6.0451617 4292989949
-0.29342321 -0.41493958 5.8177629 4292224546
-0.36838332 0.94588751 5.5720663 4280228387
-3.4557056 3.5680716 -17.697477 4279692031
-0.82132357 0.27101097 1.9054135 4280215806
-0.037011668 -2.6107371 7.3088899 4278593577
-0.26644346 0.32644916 6.2283683 4292695373
-0.10292131 -1.4509342 7.080996 4279379493
-0.19251627 -2.1758175 6.1723695 4291501080
-0.15631659 -1.2646258 6.700078 4287634466
-0.12748462 -2.0430863 6.7299757 4292093224
-0.055874754 -2.1635478 7.2749214 4279363071
-0.18324845 -2.2564805 6.2255473 4279820543
-0.18577783 -1.866353 6.3067503 4279165178
-0.24732535 -1.0752432 6.0176282 4280163876
-0.12492646 -0.82057077 7.058866 4292273663
-0.58831716 0.66325778 3.8130567 4280886302
-0.001639914 -1.155473 7.9103894 4279836710
-0.30357185 0.35720143 5.9378018 4292814888
-0.35018799 0.83983725 5.6888022 4292535039
-1.485595 1.135277 -3.0393395 4279377957
-0.090484463 -0.80796015 7.313508 4292549929
-0.10679829 -1.8570287 6.9445562 4291960356
-0.12748462 -2.0430863 6.7299757 4292093741
0.0019430756 -1.2128425 7.9465723 4279510831
-0.14902903 -1.8746876 6.600862 4279574057
-0.15029731 -1.8142698 6.6066232 4292090915
-0.22469307 0.26270124 6.5485859 4279230714
-0.24693397 -1.5179943 5.9039655 4280869887
-0.089505598 -2.4560306 6.9271674 4291766046
-0.040929977 -0.10295574 7.8639469 4292613654
-0.65560675 -0.14912137 3.0943851 4279573530
-0.43415689 -0.64969176 4.6898379 4279378472
-0.18350281 -0.51447052 6.676599 4292091428
-0.1198698 -1.9255165 6.8410034 4285013531
0.10316791 -0.20576014 8.9477139 4292487465
-0.43415689 -0.64969176 4.6898379 4279377702
-0.16275296 -0.22893268 6.9180446 4279446571
-0.79027295 -0.21055378 2.0303681 4279641898
3.8129661 -1.8388523 37.392246 4292535039
-2.0178952 1.1097432 -7.1859155 4279442982
-0.21209452 -0.1972315 6.5283637 4292485161
0.052406412 -1.867166 8.1779442 4279583596
-1.680356 0.53665417 -4.6984706 4292273407
-0.42488977 -0.57614076 4.8065095 4279557375
-0.12492646 -0.82057077 7.058866 4292273151
-0.1092373 2.930038 8.0994196 4283768604
-0.22889116 0.44398916 6.5620337 4279723353
-1.4795431 -1.0293826 -3.5150435 4286113023
-0.24013136 0.88980842 6.5878406 4291898149
-0.1061998 -1.263153 7.1036162 4292307827
-0.18990624 -1.827422 6.2831922 4280019199
-0.11274571 -1.3009908 7.0412588 4279442210
3.8129661 -1.8388523 37.392246 4292485398
-0.16045822 -1.9956771 6.4749751 4279495423
-0.43415689 -0.64969176 4.6898379 4279428095
-0.11274571 -1.3009908 7.0412588 4279494399
-0.14413159 -1.0848999 6.8427825 4279444012
6.4544568 -2.6807439 57.61668 4292536319
-0.03951747 -2.3786349 7.3489661 4279689471
-0.30693966 0.35841915 5.9109845 4292681757
-0.14655994 -1.9157948 6.6094737 4292156193
-0.21209452 -0.1972315 6.5283637 4292494191
-0.10742156 -1.3155365 7.0801945 4292008956
-0.80287218 -0.11194272 1.955168 4279821055
-0.21209452 -0.1972315 6.5283637 4292484643
-0.13002473 -2.4399788 6.6053762 4291829542
-0.089052208 -2.3232248 6.9647875 4292339199
-0.1907323 -1.8952693 6.259203 4280083198
-0.17382596 -0.21023649 6.8339934 4292354343
-0.079453498 -2.1281819 7.0942945 4291764263
-0.42826152 -0.51396775 4.7947574 4288537343
-0.69073611 0.15782158 2.904861 4287047199
-4.2259316 5.3539929 -23.253508 4279835159
-0.13690801 -2.284049 6.590692 4292326604
-0.18577783 -1.866353 6.3067503 4279166719
-0.22121285 -0.20444156 6.4549732 4292419107
-0.26200023 -0.091950014 6.1556873 4279311913
-0.19265892 -1.5549563 6.33183 4292234331
-0.080261804 -2.5267761 6.9826851 4279312679
-0.10852748 -1.550981 7.011251 4291831334
-1.2307253 0.093659028 -1.3142203 4279494399
-0.18952011 -2.2499473 6.1763644 4291354879
-0.24887882 -0.67014778 6.1101456 4293140007
-0.090568699 -1.8996533 7.0628829 4292157218
-0.42623782 -0.38525122 4.8402348 4279915077
-0.19285209 -1.7741963 6.2739272 4279609791
-0.36729556 1.3014092 5.6804132 4293007133
-0.30269888 -0.055291235 5.8368726 4280755752
-0.21646392 0.29724258 6.623158 4292337919
-0.19051464 -2.1991465 6.1817102 4279033343
-0.20642573 -0.23049392 6.5663929 4279899411
-0.22965835 -1.8079721 5.967917 4291371047
-0.42775512 -0.51526308 4.7978163 4287963951
-0.35655549 0.52409536 5.554873 4280542715
-0.22889116 0.44398916 6.5620337 4279702804
-2.2787097 1.7487537 -9.0227709 4279769890
6.4544568 -2.6807439 57.61668 4292498759
-0.42800331 -0.53187597 4.7920489 4279051807
-0.17136434 -0.26766005 6.8389845 4292208639
-0.49447137 1.0589727 4.6373954 4292928767
-0.28532791 -0.91042829 5.795898 4279442207
-10.80325 24.932512 -69.661545 4291945471
-0.80870432 -0.036608323 1.9302022 4279969831
-0.20587422 -0.66452599 6.4579945 4292421413
-0.79678321 0.022155972 2.0367332 4292551457
-0.16159542 -0.71925819 6.7997947 4278849553
-0.75470668 0.021965237 2.3644209 4292502359
-0.030201769 -2.6051214 7.3657026 4279362559
-0.54572409 -0.50657701 3.8615174 4292221213
-0.48185104 -0.20245767 4.4270973 4279707431
-1.2702487 0.77490181 -1.4541047 4279358447
-0.18194889 -1.2405134 6.5013604 4279494399
-0.087067641 -2.4336262 6.9520249 4279444777
-0.19368327 -1.6310083 6.3039856 4279690751
-0.15631659 -1.2646258 6.700078 4287634971
-0.3337377 0.44055456 5.7178502 4279706141
0.73085213 -2.4149988 13.241309 4279769631
-0.34027219 -1.796149 5.1658707 4288959098
-0.093985282 -2.0049717 7.0089898 4278852386
-0.33524895 0.38254744 5.6873298 4292354326
-1.6435558 -1.1938665 -4.8269038 4282178040
-0.79769921 0.34152329 2.1113229 4279951871
-0.22444367 0.40093613 6.5861325 4293008158
-0.19148068 -1.4538105 6.383265 4279378985
-0.19639827 -0.39421204 6.6046276 4292287262
-0.25198016 -0.22607931 6.2011924 4280341487
-0.21635917 0.25785965 6.6137476 4279428095
-0.43415689 -0.64969176 4.6898379 4279377958
-0.31433454 0.45428228 5.8765736 4279723862
-0.14808229 -1.8743185 6.608706 4279101439
-0.18813057 -1.374037 6.4164796 4280018175
-0.20441981 -1.6119683 6.2228498 4292366154
-0.17886737 -1.908125 6.351624 4279835681
-0.36205134 0.9866268 5.6311607 4292683821
-0.11337288 -1.7887186 6.9098129 4279643696
-0.26704469 0.27894455 6.2115564 4279902246
-0.73874187 -0.57311636 2.3423262 4279310879
-1.6630422 -0.84194368 -4.903625 4279672538
-0.59517062 0.06897343 3.6186407 4279575329
-0.25684312 0.58261883 6.3744874 4279708465
1.8688991 -5.5042496 21.39065 4279573282
-0.25198016 -0.22607931 6.2011924 4280311893
-0.18325245 -1.8722857 6.3254256 4292142079
0.1149973 3.5604994 9.9366455 4284686889
-0.15117662 -0.86343914 6.8459187 4279558653
-0.078538902 -1.4290255 7.2819462 4291700521
-0.35319537 0.5558877 5.5907006 4280343551
-1.8561096 0.88100255 -5.985158 4292222245
-0.17876901 -0.15938289 6.8075137 4292337919
-0.78573465 0.36431286 2.2103779 4285802025
-0.1783707 -0.1136712 6.822794 4291944191
-0.29743132 -0.56535941 5.7461877 4280949786
-3.5372961 2.6168008 -18.588491 4279573026
-3.5372961 2.6168008 -18.588491 4279576102
-0.13150719 -1.9740065 6.714952 4279704602
-0.25557056 -0.17755404 6.1846786 4279965727
-0.15631659 -1.2646258 6.700078 4287633698
4.6428542 -10.087692 41.824184 4279885567
-0.19148068 -1.4538105 6.383265 4279428607
-0.19005805 -1.7370672 6.3056669 4279886847
-0.20587422 -0.66452599 6.4579945 4292420126
-0.69073611 0.15782158 2.904861 4287043869
-0.18320693 -0.10772449 6.7852564 4279624703
-1.4704584 0.57372528 -3.0590043 4292207615
-0.14922756 -1.6685722 6.6521568 4279639075
-0.047207661 -2.4545262 7.2678251 4291632164
-0.56535351 1.5577799 4.1928649 4281786096
-0.3839246 1.0536126 5.497045 4290766079
-0.093183674 -1.9173058 7.0382648 4292026132
-0.57567519 -0.51711774 3.6163485 4292405247
-0.82707691 0.030517161 1.8028255 4292207103
-0.29466206 -0.54488164 5.7733536 4292091430
-0.76856434 0.031622231 2.2590458 4279823615
-0.030563643 -2.6686742 7.3452077 4291666877
-0.20039274 0.56239176 6.8200135 4279638818
1.1940809 -2.2692728 16.951725 4279493375
-0.29742089 -0.18109731 5.8466845 4280311893
-0.10529587 -2.2559919 6.851995 4279378468
-0.17368063 -0.25835553 6.8227429 4292339711
6.5842352 -4.0578885 58.170601 4292420638
-3.2720563 3.7331555 -16.258183 4292141311
-1.7047698 0.92590863 -4.7906084 4280149759
-0.24185358 -1.6009842 5.9235935 4280936447
-0.052460913 -0.83849078 7.6105671 4279772455
-0.38685933 2.1229191 5.7114687 4282574591
-0.26332411 -0.93019354 5.9261651 4292339455
-0.7055037 0.13922139 2.7740612 4279965968
-0.42839062 -0.51244062 4.7938147 4279770146
-0.10341691 -1.8081659 6.9844375 4278839295
-0.67111069 0.78432465 3.1978061 4281020200
-0.22899248 0.88647825 6.6761713 4280100390
-0.094930165 -1.4663132 7.1413994 4291897647
-0.351188 0.4834052 5.5874772 4292747813
-0.42406502 -0.52617019 4.8226285 4279705108
-0.29742089 -0.18109731 5.8466845 4280304946
-0.25871775 0.28831354 6.281014 4279311638
-3.5372961 2.6168008 -18.588491 4279625727
-0.71759611 0.1187817 2.6753533 4279755775
-0.22469307 0.26270124 6.5485859 4279179284
-0.18952011 -2.2499473 6.1763644 4291355647
-0.29650593 -0.20173123 5.8479786 4280167208
-0.23634548 -1.6166326 5.9629984 4291815423
-0.70268506 0.028996106 2.7692144 4292600063
-0.42434418 -0.56483465 4.8119593 4284881698
-1.541593 0.11196142 -3.7179329 4292548880
-0.20143484 -0.32009009 6.5832171 4279376670
-0.46594545 1.4361029 4.9406252 4285391359
-0.62412703 -0.37067702 3.2780299 4279707683
-0.24271587 -1.2595434 6.006434 4279822079
-0.65217048 0.11427321 3.1834149 4292535295
0.42904481 -3.0605211 10.777674 4279560191
-0.43044111 -0.39973718 4.80619 4279165951
-0.17382596 -0.21023649 6.8339934 4292354333
-0.16452606 -1.6335748 6.5385971 4279625471
-0.25343654 -0.19330987 6.197742 4292949294
-0.31466743 -0.86895269 5.5564399 4292337919
-1.7788837 1.0092849 -5.3396916 4279899926
-0.68471056 -0.58291936 2.7567835 4279704612
-0.34012145 0.38127416 5.6494112 4292404223
-0.45318338 -0.45322278 4.5841656 4279754751
0.12792929 -0.64905411 9.0531807 4292417302
-0.66897351 -0.23903073 2.965204 4292340735
-0.19051464 -2.1991465 6.1817102 4279003526
-0.21734399 0.74817103 6.7332802 4279654998
-0.79499555 -0.12300384 2.0134592 4292194424
-0.25202042 -0.5680089 6.1111875 4280149759
-2.1468015 2.7955792 -7.7600832 4279527814
-1.407047 0.8949905 -2.4863021 4291934362
-0.1969444 0.30465364 6.776536 4279756543
-0.42406502 -0.52617019 4.8226285 4279705384
-0.42765018 -0.49840453 4.8025827 4287109664
-0.036367103 -2.4704697 7.3509159 4279707948
-0.17968346 -0.51806986 6.7041969 4279709757
-0.27188882 0.40236044 6.2045107 4292483091
-0.12790704 -0.81764525 7.0364075 4278892757
0.6180982 -2.5990412 12.365445 4280082687
-0.39325413 2.0567405 5.6479869 4282836735
-0.60852993 -0.64496887 3.3338382 4292392843
-0.14471571 -2.3190188 6.5189061 4292250256
-0.088853396 -2.4629562 6.9300179 4278395169
0.64600593 -0.91043884 13.028041 4279379504
-0.75502187 -0.53857464 2.2225826 4279757054
-0.42560035 -0.58414918 4.7972231 4281278504
-0.68371564 -0.46398893 2.7929986 4292400895
-2.0778017 -0.54689157 -8.0525122 4279360511
3.4914503 -2.2815652 34.792717 4279969837
-0.26203904 -0.51204729 6.0451617 4292944414
-0.33365759 -1.6277441 5.2580104 4282147948
-1.3013041 0.36561385 -1.7954922 4292089615
-0.046894103 -2.5278838 7.2518544 4291553023
-0.46574759 1.8498232 5.0356269 4282456609
-0.16179232 -0.79993665 6.7773514 4292076799
-0.25120738 1.7111219 6.7013154 4283279737
-0.27277136 0.47338799 6.2158332 4292864767
-0.5100975 -0.19791183 4.2174416 4279561471
-0.54417324 -0.93857038 3.7593822 4279638561
-0.54417324 -0.93857038 3.7593822 4279644720
-0.17948893 -2.2666404 6.2527037 4291831342
-0.10041098 -1.8626666 6.9944472 4292090402
-0.10529587 -2.2559919 6.851995 4279375641
-0.23703429 1.0526674 6.654572 4279952127
1.1597002 -2.7904088 16.546469 4284884263
-0.11121275 -1.2001458 7.0785918 4279575851
-0.42775512 -0.51526308 4.7978163 4287961888
-0.10307251 -1.403172 7.0920715 4291290879
-0.34554055 -1.5392998 5.1874213 4288602367
1.1597002 -2.7904088 16.546469 4284893749
-0.34664488 -1.5533546 5.1757779 4282261288
-0.25557056 -0.17755404 6.1846786 4279973984
-0.17968346 -0.51806986 6.7041969 4279756031
2.0869241 -6.8594208 22.720575 4292352283
-0.047207661 -2.4545262 7.2678251 4291633188
-0.82785136 0.040765841 1.799108 4292367939
-0.16550066 -1.1443713 6.6573825 4278771967
-0.12136829 -1.8542891 6.8273883 4279230974
-0.20404391 -1.4358227 6.2900605 4279458153
-0.22912872 0.93141127 6.6862531 4292155411
-0.19225632 -1.4481515 6.3840561 4291894308
-0.42800331 -0.53187597 4.7920489 4279069062
-0.42826152 -0.51396775 4.7947574 4288487724
-0.14922756 -1.6685722 6.6521568 4279690751
1.1597002 -2.7904088 16.546469 4284888897
-0.78823453 -0.25312752 2.0355124 4279669166
-0.31170118 0.50526071 5.9109955 4279772970
-0.69917631 -0.19605194 2.7400694 4279887615
-0.81079131 -0.12167663 1.8927543 4292026408
-0.42794487 -0.53662235 4.7919636 4279377961
-2.6212494 -0.015536662 -12.123479 4280084223
-0.21585102 -0.56872141 6.4019709 4278984226
-0.12136829 -1.8542891 6.8273883 4279182386
-4.0162959 -0.16825688 -22.996323 4291683583
-0.26772237 0.39113575 6.2350984 4279888126
-0.35547408 0.98452765 5.6836543 4292550693
-0.27188882 0.40236044 6.2045107 4292484386
-0.7888453 0.28268957 2.1610992 4292286495
1.1597002 -2.7904088 16.546469 4284882980
-0.14981787 -0.26751268 7.0124249 4291944447
-0.21904619 1.4580506 6.8907356 4290375679
-0.15987912 -1.1912501 6.6910095 4292273919
-0.230014 -1.6703705 6.0008135 4280298277
-0.22798982 0.41270825 6.5606084 4292271614
-0.46998546 -1.1053467 4.2940435 4292338431
-0.43200758 -0.39698175 4.7941208 4279332995
-0.081387833 -2.4941895 6.9827285 4279389026
-0.41977918 -0.55382699 4.8487601 4282588196
-0.098040789 -2.0029416 6.9768319 4292505731
-0.67951769 -0.68635225 2.7763388 4278724901
0.012591431 0.55853361 8.4442663 4278985238
-0.35424262 0.47984555 5.5620403 4292536063
-0.14183533 -2.2724757 6.5542274 4292091680
-0.75630248 -0.32293966 2.2635374 4292208383
-0.78359175 0.33595693 2.2197199 4281148456
-0.42303574 -0.45589015 4.8478312 4279048478
-0.044784367 -2.5005481 7.275475 4278608212
-1.1882347 0.0010696143 -1.0084049 4284894524
0.61639088 -0.13304837 12.995719 4279378198
-0.56789255 1.4244318 4.1426811 4285145128
-0.090768076 -1.9983813 7.0365205 4279232767
-0.6742087 0.083470643 2.9952288 4280360489
-0.65431923 -0.53695285 3.0045936 4279164671
-1.5424237 1.4632559 -3.3979275 4279704349
-0.20692082 -0.68301535 6.4446301 4292354086
-0.040282562 -2.6488144 7.2740698 4291942901
-0.1622901 -0.75790268 6.7838836 4278979081
-0.20938984 -0.17872298 6.5554428 4292880428
-0.15572613 -1.2661403 6.7240334 4284292136
-0.20692082 -0.68301535 6.4446301 4292356136
-2.7126188 2.347698 -12.250388 4279884277
-0.68161976 -0.61977017 2.7734816 4292222763
-0.84529299 0.51544309 1.785576 4286243327
-0.42303574 -0.45589015 4.8478312 4279063376
-0.17368063 -0.25835553 6.8227429 4292291881
-0.78327489 -0.11104741 2.1097465 4279703073
-0.56931436 1.416261 4.1297021 4285082149
-0.70129544 -0.24226746 2.7159185 4279755007
-0.03901146 -2.564827 7.305027 4291435283
-0.5206548 1.0862775 4.434392 4292273407
-0.17456657 -0.21221434 6.8272681 4278561215
-0.83188832 0.26019272 1.8276546 4285211177
-0.23415734 0.86548269 6.6296415 4279662199
-0.0034138765 -0.71564567 8.0218563 4279755517
-0.4560402 1.7647017 5.0893283 4284755241
-0.15655495 -1.0565071 6.7519603 4292026412
-0.49916148 1.1837916 4.6438251 4283621631
-0.70502496 -0.096350268 2.7135589 4292223533
-0.24271587 -1.2595434 6.006434 4279769374
-0.77812564 0.27132455 2.2417147 4292288290
-0.088905744 -2.3600402 6.9557328 4291893540
-0.4564749 -0.45527855 4.5701303 4279443240
-0.3638353 0.99284524 5.6135025 4280606719
-0.77749699 -0.43136123 2.0750766 4291959587
-0.28315538 -1.0633192 5.77389 4279280315
-0.16484492 -0.66106462 6.7887516 4292208127
-0.26704469 0.27894455 6.2115564 4279903013
-0.42389205 -0.61021608 4.8043051 4284606463
-0.26444697 0.92058134 6.4018073 4279183920
-0.22423506 0.25580031 6.5500259 4292359990
-0.17034534 -1.773904 6.4548893 4279460714
-2.0756021 -0.53532594 -8.0319843 4292420385
-0.10185407 -1.4107691 7.1001263 4278918952
-0.16223484 -0.26875967 6.9118686 4292290605
-0.098040789 -2.0029416 6.9768319 4292485151
-0.17034534 -1.773904 6.4548893 4279472347
-0.34643781 0.029104879 5.5512848 4279495167
-0.62132871 -0.3714557 3.2995157 4279703572
-0.23287834 -1.753111 5.9574008 4280197820
-0.68988144 -0.23413941 2.7984731 4280363045
-0.10122908 -1.8766917 6.9839272 4279638819
-0.43084154 -0.29892492 4.8274498 4278592036
-0.17034534 -1.773904 6.4548893 4279453520
-0.33021942 0.161947 5.7199459 4278706431
-0.14686958 -1.3493689 6.7543192 4279445809
-0.22423506 0.25580031 6.5500259 4292392661
-0.35189709 -1.3410095 5.1859822 4282769148
-0.22419958 1.2306672 6.7999969 4291552511
-2.941272 2.9385958 -13.920782 4279641123
-0.42794487 -0.53662235 4.7919636 4279390527
-0.29685125 -0.14380977 5.8605742 4280081919
-0.15185849 -1.2934356 6.7287655 4279114275
-0.86230266 0.45793873 1.6381797 4290059547
-0.20085491 -1.1405129 6.374382 4279770409
-0.2346417 0.94395536 6.6454525 4278969855
-1.2328591 -0.23385963 -1.4146751 4278854680
-0.35187876 0.47190934 5.5789237 4280885546
-0.23727147 -1.5672095 5.9692931 4291905615
-1.4304038 0.36755639 -2.7937143 4279230207
-0.49953601 -0.59002286 4.200666 4279573794
-0.5179773 0.12419147 4.2277632 4279842094
-0.16020785 -1.2820296 6.6647401 4278622114
-0.034617029 -2.6815264 7.3114066 4279310106
-0.41126877 -0.50619185 4.8914266 4279718465
-0.74951142 -0.18968911 2.3496912 4280017151
4.8277545 -10.821638 43.076412 4292156200
-0.21966717 -1.6995721 6.0787144 4279770400
-0.69691467 -0.1146815 2.7785439 4292089634
-0.15801723 -1.7227221 6.5678048 4278721318
-0.23871407 1.0215694 6.6332197 4279638563
-0.3454563 -1.262115 5.2187467 4279720782
-0.18633236 -2.3021352 6.1883702 4279505938
-0.30570543 -1.1478441 5.5640545 4279839020
-0.13545965 -2.3334374 6.5897627 4279248164
-0.10122908 -1.8766917 6.9839272 4279640879
-0.10122908 -1.8766917 6.9839272 4279646276
-0.5700224 -0.53878927 3.6655583 4279493631
-0.42628533 -0.55965632 4.7976985 4284395640
-0.40326017 -0.63298863 4.9597077 4285171602
-0.6023314 -0.30378971 3.4636924 4279492088
-0.59879923 1.3229873 3.8792806 4285079327
0.29525712 -0.58827841 10.361941 4279771425
-0.15631659 -1.2646258 6.700078 4287635499
-0.87379265 0.43197754 1.5404459 4282392359
-0.35172114 -1.6205523 5.1198268 4289012786
-0.14265625 -1.8843057 6.6490021 4292663295
-0.45858881 1.7638901 5.0694666 4284916899
-0.75500476 -0.097927265 2.3306434 4279706915
-0.19174945 0.2872889 6.8106804 4279181598
-0.11812688 -1.2055398 7.0225945 4278987301
-0.30146712 1.0214515 6.1522384 4278983972
-0.7881453 0.43651053 2.2088161 4282327334
-0.30226842 -0.14065452 5.863358 4278379517
-0.18207251 -2.2164605 6.2448664 4279690751
-0.26718721 0.37352163 6.2346311 4279246375
-1.5241089 0.80163366 -3.4205103 4292298058
-0.89647722 0.21287145 1.3096652 4279901992
-0.28829101 -0.58142716 5.8155365 4280296740
-0.19174945 0.2872889 6.8106804 4279195497
-0.43105069 -0.39392644 4.8018608 4279298559
0.45113924 -2.2732263 11.173762 4279264369
-0.30570543 -1.1478441 5.5640545 4279837221
-1.7456144 -0.11370186 -5.3524489 4280081663
-0.42074069 -0.45099866 4.8662872 4280290829
-0.34012145 0.38127416 5.6494112 4292361280
-2.3123753 1.9333354 -9.2387915 4279444835
-0.16913928 -1.2533278 6.6094332 4292353315
-1.4614426 1.1883813 -2.8333454 4279721837
-0.30357185 0.35720143 5.9378018 4292847784
-0.73823923 0.37074471 2.5885918 4281688939
-0.13798244 -2.3421652 6.5672398 4291880191
-0.46469074 -0.6778639 4.4560919 4279834912
-0.3559745 -1.0938956 5.2178583 4282393895
-0.55122054 1.5698795 4.3066721 4282638845
-0.1995486 -1.2374407 6.3588433 4279586395
-0.85319906 0.18493371 1.6427646 4286111487
-0.25464252 -0.14525452 6.200664 4279687919
-0.8076455 0.42778492 2.0576661 4285802789
-0.41107777 -1.1575297 4.7225046 4279903282
-0.23415734 0.86548269 6.6296415 4279641641
-4.8345551 2.0308394 -28.880625 4279506962
-0.42156449 -0.53523189 4.8391199 4280688934
-0.22289491 -0.076273181 6.4742923 4278804057
-0.89020962 0.2029783 1.3569907 4280623902
-0.097094029 -1.9171867 7.0072498 4279574051
-0.87811387 0.033353899 1.4117984 4285996572
-2.565335 -0.30274832 -11.776709 4279771951
-0.63746142 0.37673146 3.3763044 4284998143
-0.42406502 -0.52617019 4.8226285 4279707434
