# .PCD v0.7 - Point Cloud Data file format
VERSION 0.7
FIELDS x y z rgb
SIZE 4 4 4 4
TYPE F F F U
COUNT 1 1 1 1
WIDTH 319
HEIGHT 1
VIEWPOINT 0 0 0 1 0 0 0
POINTS 319
DATA ascii
2.9645801 -4.3228717 30.574963 4282869953
2.8846228 -4.2216115 30.423597 4282869953
-3.6357467 -3.8456986 29.612104 4282869953
0.047346067 -3.5391462 29.104132 4282869953
-1.5234525 -3.6464956 29.429272 4282869953
0.11939564 -3.6386366 29.434574 4282869953
-1.5123627 -3.8435271 30.012262 4282869953
0.26851061 -3.8595881 30.092903 4282869953
-1.6139679 -3.5033917 29.282927 4282869953
-2.0370855 -3.615932 29.636728 4282869953
0.27712563 -3.9381251 30.75535 4282869953
-1.6335108 -3.251709 28.932005 4282869953
-1.165007 -3.6182027 29.930603 4282869953
-0.83378905 -3.7486055 30.208225 4282869953
-0.91118896 -3.1557803 28.696136 4282869953
0.51101679 -3.7467601 30.337456 4282869953
-1.5821624 -2.9794769 28.290257 4282869953
-1.3167038 -2.8225782 27.901379 4282869953
-0.22033933 -2.6543043 27.444229 4282869953
-1.3140235 -3.4557881 29.733248 4282869953
-0.45098555 -2.9220762 28.282452 4282869953
0.26838583 -3.329411 29.39809 4282869953
0.66035271 -3.7354884 30.422159 4282869953
-1.4315145 -2.6928165 27.743208 4282869953
-1.9197576 -3.4268553 29.906261 4282869953
-1.8032848 -2.7738135 28.025776 4282869953
-1.6988182 -3.5872486 30.35145 4282869953
-0.71941608 -3.5595255 30.329733 4282869953
-2.228689 -3.3737907 29.824394 4282869953
-1.690396 -3.716248 30.886492 4282869953
-1.4139847 -3.6426234 30.633162 4282869953
-1.538204 -2.379653 27.029474 4282869953
-0.73875564 -3.4672351 30.191378 4282869953
-3.5103862 -3.3562655 29.896338 4282869953
-2.2879436 -3.4150662 30.065948 4282869953
-2.2336543 -3.3319647 29.828337 4282869953
-1.7756863 -3.5069096 30.256475 4282869953
-1.7362168 -2.6603475 27.933378 4282869953
-1.462847 -3.1873274 29.479464 4282869953
-0.77038556 -3.3455076 29.953518 4282869953
-0.62665445 -3.6206646 30.753345 4282869953
-0.82247382 -2.9477842 28.833784 4282869953
-0.66386282 -2.4070535 27.075562 4282869953
-2.2293284 -2.9557018 28.845884 4282869953
-2.2121835 -3.1053541 29.292097 4282869953
-1.9828967 -3.3644419 30.077959 4282869953
-1.7867128 -2.7113867 28.079992 4282869953
-1.7427992 -2.5532341 27.708984 4282869953
-1.4766463 -3.0571911 29.219622 4282869953
-1.6195045 -1.8042679 25.475372 4282869953
-1.110765 -2.5720096 27.715977 4282869953
-0.83269453 -2.0792243 26.205252 4282869953
-0.042790562 -2.808856 28.484854 4282869953
-2.2520792 -3.0404685 29.217304 4282869953
-1.9656537 -2.8499174 28.645201 4282869953
-1.7849841 -2.482517 27.547382 4282869953
-1.5600525 -3.5657616 30.832737 4282869953
-1.6216748 -2.4801376 27.546301 4282869953
-0.95238 -1.8449192 25.588068 4282869953
-0.051526867 -2.7625947 28.454643 4282869953
-3.3064156 -3.3504524 30.165941 4282869953
-2.7030287 -3.5785294 30.878695 4282869953
-1.9519551 -2.564477 27.917902 4282869953
-1.7796209 -2.5639966 27.936811 4282869953
-1.6306401 -2.4572816 27.517277 4282869953
-1.5082027 -3.3073168 30.062456 4282869953
-0.17488363 -3.1927118 29.815443 4282869953
-0.48323682 -2.4928405 27.656071 4282869953
-0.059617076 -2.7173574 28.426834 4282869953
-2.4401126 -2.9637153 29.147055 4282869953
-2.3564091 -2.8382587 28.811718 4282869953
-2.2130318 -3.1836576 29.895483 4282869953
-2.1453822 -2.9333136 29.093277 4282869953
-1.7701634 -3.0981474 29.681025 4282869953
-1.7422225 -2.6475875 28.31123 4282869953
-1.6334376 -2.4108448 27.470367 4282869953
-1.3692608 -2.6950049 28.449808 4282869953
-1.3079196 -1.9299129 25.967899 4282869953
-0.45663393 -3.1997647 30.006485 4282869953
-0.48273215 -2.9006102 29.051008 4282869953
0.24458022 -3.3041296 30.490025 4282869953
1.1222141 -3.2698967 30.114689 4282869953
-3.4998047 -3.1792891 29.944828 4282869953
-2.0520329 -1.9359392 26.15078 4282869953
-1.7811564 -2.6464598 28.40654 4282869953
-1.2571615 -3.2670722 30.316618 4282869953
-1.363044 -2.3790095 27.546268 4282869953
0.052988026 -2.6783111 28.583607 4282869953
-2.2844758 -2.5655344 28.213511 4282869953
-2.0188577 -1.396067 24.496197 4282869953
-2.1674397 -2.7121572 28.665545 4282869953
-2.1320133 -3.1135778 29.970425 4282869953
-1.5695251 -2.5537097 28.209471 4282869953
-1.4167591 -3.1107919 29.955721 4282869953
-1.2875532 -2.8474379 29.163042 4282869953
-1.3013372 -2.6381094 28.441555 4282869953
-0.33900312 -2.3828857 27.570969 4282869953
0.3761299 -3.0485656 29.885071 4282869953
-2.3492455 -2.0730577 26.712414 4282869953
-2.0681403 -1.5431472 25.030466 4282869953
-2.2602983 -3.2621725 30.505594 4282869953
-2.0753963 -2.5229957 28.210011 4282869953
-1.5648575 -2.5877252 28.409985 4282869953
-1.5984087 -1.9050061 26.157433 4282869953
-1.345569 -3.2118928 30.457497 4282869953
-1.5520698 -1.7287503 25.620123 4282869953
-1.4875239 -1.9278988 26.248283 4282869953
-1.3348198 -2.4661365 27.996557 4282869953
-1.1516399 -3.0549278 29.910223 4282869953
0.52220577 -2.6889617 28.753881 4282869953
0.88196701 -2.9980142 29.786074 4282869953
-2.5474288 -2.9522581 29.725275 4282869953
-2.0154688 -1.1641483 23.827282 4282869953
-2.0721712 -1.530163 25.028999 4282869953
-2.0863764 -1.8680903 26.192575 4282869953
-2.1854575 -2.7266212 28.954548 4282869953
-2.1235223 -2.894315 29.530521 4282869953
-2.0395675 -2.4629042 28.137802 4282869953
-1.7804124 -2.9058044 29.601061 4282869953
-1.7415073 -2.7918079 29.228901 4282869953
-1.5422097 -2.7842379 29.129467 4282869953
-1.6003025 -1.8753865 26.137089 4282869953
-1.5108466 -1.9109629 26.296692 4282869953
-1.257475 -2.9676392 29.721251 4282869953
-1.2275698 -2.9034441 29.518982 4282869953
-2.4212892 -1.8728142 26.227882 4282869953
-2.1385503 -1.298847 24.324453 4282869953
-2.4704928 -2.4792426 28.249866 4282869953
-2.013376 -1.025189 23.399712 4282869953
-1.9913799 -0.97875416 23.250019 4282869953
-1.9857066 -1.003076 23.32926 4282869953
-2.0351768 -1.3124243 24.359331 4282869953
-1.9869833 -1.8529764 26.217125 4282869953
-1.8786439 -1.1516856 23.801739 4282869953
-1.7756616 -1.9448647 26.495634 4282869953
-1.5469311 -3.0193751 30.179403 4282869953
-1.523789 -2.8936377 29.640413 4282869953
0.86985373 -2.7403865 29.343248 4282869953
1.4407368 -3.1306684 30.795788 4282869953
0.75524747 -2.5118718 28.635178 4282869953
-2.2430708 -1.1940603 23.992886 4282869953
-2.2193687 -1.2714955 24.283747 4282869953
-2.2249558 -1.5779402 25.301414 4282869953
-2.4461634 -2.895016 29.765785 4282869953
-2.2723882 -2.2990851 27.74579 4282869953
-2.1386642 -1.8041552 26.076096 4282869953
-2.2851915 -2.7395337 29.265209 4282869953
-1.9830818 -1.7615664 26.0058 4282869953
-2.0222819 -2.5652483 28.718632 4282869953
-2.0113461 -2.9974284 30.186907 4282869953
-1.771921 -2.028357 26.886522 4282869953
-1.506176 -2.9977114 30.143082 4282869953
-0.83456153 -2.8241005 29.574392 4282869953
2.2857821 -2.9906151 30.245663 4282869953
-2.4960883 -1.7197962 25.862467 4282869953
-2.6075277 -2.0194173 26.902168 4282869953
-2.8767576 -2.7069044 29.282213 4282869953
-1.9433093 -0.62080902 22.085348 4282869953
-2.0522406 -0.97723454 23.314337 4282869953
-2.4723549 -2.3507946 28.022358 4282869953
-2.1672778 -1.4444129 24.921545 4282869953
-2.0639863 -1.134222 23.858761 4282869953
-2.0719512 -1.218122 24.154104 4282869953
-2.0624409 -1.2440848 24.24065 4282869953
-2.0600049 -1.3064334 24.437742 4282869953
-2.1646593 -1.9002966 26.50712 4282869953
-2.1651409 -2.0487716 27.025852 4282869953
-2.1653299 -2.2270789 27.63863 4282869953
-2.1907725 -2.610729 28.952909 4282869953
-1.9705293 -1.594227 25.504972 4282869953
-2.010066 -2.3608558 28.127132 4282869953
-1.7921149 -2.4852321 28.575205 4282869953
-1.7499094 -2.588927 28.936405 4282869953
-1.2518646 -3.0308566 30.525562 4282869953
-0.97026682 -3.0203431 30.453409 4282869953
-2.3713412 -1.3552548 24.671474 4282869953
-2.0792496 -0.81219256 22.733984 4282869953
-2.5047119 -1.7197105 25.932207 4282869953
-2.5119765 -1.78769 26.176849 4282869953
-2.1945117 -1.3682245 24.713562 4282869953
-2.3101981 -1.801141 26.21895 4282869953
-2.1264794 -1.2804003 24.400768 4282869953
-2.001225 -0.89218003 23.048151 4282869953
-1.9517007 -0.74233317 22.519642 4282869953
-2.1479993 -1.5762086 25.45146 4282869953
-2.2289824 -2.0294518 27.05529 4282869953
-2.2466033 -2.2575369 27.863045 4282869953
-2.1896443 -2.13992 27.449442 4282869953
-2.1293726 -1.9802214 26.884563 4282869953
-2.218926 -2.7465463 29.551012 4282869953
-2.1444604 -2.8369117 29.915771 4282869953
-1.9833636 -1.6907831 25.911558 4282869953
-1.9901427 -2.0741267 27.243774 4282869953
-0.97848302 -2.9540951 30.376926 4282869953
-2.9389303 -1.6996855 25.995649 4282869953
-3.2718267 -2.2474306 27.812181 4282869953
-2.4174008 -1.4927766 25.15517 4282869953
-3.1456671 -3.0670652 30.713505 4282869953
-2.3246963 -1.5502385 25.421766 4282869953
-1.9587334 -0.68625873 22.339907 4282869953
-2.0096104 -0.87557113 23.018511 4282869953
-2.0959275 -1.2153274 24.2239 4282869953
-2.0237615 -1.0057068 23.474115 4282869953
-2.0962296 -1.34633 24.695644 4282869953
-2.2597055 -2.1283791 27.511332 4282869953
-2.2471547 -2.2213645 27.849646 4282869953
-2.2165916 -2.2411122 27.921846 4282869953
-2.2091849 -2.3982601 28.478075 4282869953
-2.2129662 -2.663018 29.408615 4282869953
-2.0435317 -1.9586509 26.933397 4282869953
-1.9942137 -1.7646792 26.252676 4282869953
-1.7832 -2.9351113 30.443581 4282869953
-1.753894 -2.4721503 28.775431 4282869953
-1.7090439 -2.5686471 29.133307 4282869953
-1.0202789 -2.7874057 29.932606 4282869953
-2.5348537 -1.6731257 25.835169 4282869953
-2.5791657 -1.807538 26.323139 4282869953
-2.40008 -1.4914013 25.197271 4282869953
-2.4197106 -1.7653152 26.284546 4282869953
-1.9379163 -0.60320836 22.055174 4282869953
-1.9488183 -0.65140831 22.230206 4282869953
-2.0036418 -0.84914881 22.949953 4282869953
-2.0227056 -0.94902122 23.309307 4282869953
-2.1023469 -1.2840983 24.530678 4282869953
-2.2067914 -1.7618424 26.27883 4282869953
-2.259136 -2.0932593 27.493555 4282869953
-2.2616303 -2.2536561 28.081814 4282869953
-2.2685404 -2.4662004 28.85997 4282869953
-2.266516 -2.6725464 29.616199 4282869953
-2.0545013 -2.0137501 27.232357 4282869953
-2.0175855 -1.9534935 27.026751 4282869953
-1.0833235 -2.5613413 29.253576 4282869953
1.7214705 -2.3948326 28.906778 4282869953
-1.9376544 -0.57763416 21.97035 4282869953
-1.9462461 -0.60731447 22.081219 4282869953
-1.9578424 -0.63763922 22.191647 4282869953
-2.0118408 -0.81812078 22.862703 4282869953
-2.013027 -0.84546983 22.964878 4282869953
-2.0278549 -0.92197835 23.248789 4282869953
-2.1163743 -1.2584802 24.496851 4282869953
-2.1684697 -1.5077239 25.42313 4282869953
-2.2215776 -1.7965146 26.497528 4282869953
-2.2522557 -2.0358238 27.391291 4282869953
-2.2314985 -2.0874016 27.582718 4282869953
-2.2459211 -2.3197963 28.448942 4282869953
-2.2533112 -2.5615695 29.350222 4282869953
-2.2162137 -2.8985271 30.566872 4282869953
-1.9230821 -1.9045876 26.888952 4282869953
-1.8351772 -1.9209527 27.005859 4282869953
-1.1497434 -2.3321044 28.534019 4282869953
-2.3733175 -1.8446701 26.766407 4282869953
-2.0264339 -0.88364112 23.137098 4282869953
-2.1650541 -1.3497118 24.899239 4282869953
-2.1795819 -1.4588174 25.312616 4282869953
-2.2074008 -1.6306081 25.963606 4282869953
-2.1582162 -1.5368227 25.609419 4282869953
-2.232024 -1.9287424 27.096394 4282869953
-2.2486618 -2.135184 27.88072 4282869953
-2.2592783 -2.3509595 28.700788 4282869953
-2.2409017 -2.4592073 29.110565 4282869953
-2.2379143 -2.6973963 29.987013 4282869953
-2.2249582 -2.909234 30.794109 4282869953
-1.9245121 -1.9094186 27.012268 4282869953
-1.0699788 -2.5276847 29.408358 4282869953
-0.91194957 -2.8449249 30.603163 4282869953
-3.3073137 -2.4974887 29.360535 4282869953
-3.3612301 -2.6517577 29.910269 4282869953
-2.5312154 -1.8740208 27.003708 4282869953
-2.3458073 -1.7558596 26.525738 4282869953
-2.3312423 -1.7762035 26.608849 4282869953
-2.2738285 -1.6760293 26.22398 4282869953
-2.2596686 -1.708459 26.350277 4282869953
-2.2699685 -1.830752 26.825359 4282869953
-2.2616024 -1.9049987 27.112625 4282869953
-2.269351 -2.0550492 27.693958 4282869953
-2.276829 -2.2296097 28.370615 4282869953
-2.2800465 -2.4166694 29.095982 4282869953
-2.2357712 -2.4002664 29.029123 4282869953
-2.2573881 -2.7686689 30.436636 4282869953
-0.96263546 -2.7901466 30.585556 4282869953
-2.5374453 -2.351743 28.973616 4282869953
-2.4152513 -2.0892792 27.943735 4282869953
-2.3596632 -2.0125356 27.644361 4282869953
-2.3338208 -2.03073 27.717806 4282869953
-2.3230987 -2.1084113 28.025757 4282869953
-2.318083 -2.2218232 28.474716 4282869953
-2.3157675 -2.3665369 29.047558 4282869953
-2.2864501 -2.4159098 29.242739 4282869953
-2.2880459 -2.6384666 30.113184 4282869953
-2.2765145 -2.8336818 30.879272 4282869953
1.3937662 -2.6171663 30.415867 4282869953
-2.57652 -2.5433333 29.899227 4282869953
-2.4808269 -2.3722477 29.213495 4282869953
-2.4295511 -2.3286526 29.041071 4282869953
-2.3987391 -2.3546438 29.148096 4282869953
-2.3787816 -2.4281924 29.446404 4282869953
-2.3631589 -2.5335276 29.872723 4282869953
-2.3155277 -2.5200577 29.815397 4282869953
-2.3205893 -2.7635305 30.794298 4282869953
-2.5430269 -2.6724756 30.60751 4282869953
-2.4885013 -2.6401954 30.478354 4282869953
-2.4492092 -2.6627059 30.573927 4282869953
-2.4099565 -2.6923239 30.697556 4282869953
-4.2026086 -2.5301352 30.615877 4282869953
-0.19964209 -2.2228308 29.536589 4282869953
1.6473922 -2.4923201 30.866461 4282869953
-2.3091726 -1.5928348 27.226109 4282869953
-1.6174747 -1.5384241 27.158731 4282869953
1.5797883 -2.0983078 30.703548 4282869953
1.5606405 -2.0442305 30.649742 4282869953
-1.4752128 -1.4238575 28.013508 4282869953
-1.1634409 -0.82551497 28.172602 4282869953
-0.85165012 -0.97851467 30.813299 4282869953
-3.9282985 0.023488386 30.754049 4282869953
-0.9932037 0.32292625 30.415661 4282869953
-1.0399455 0.25919136 29.444601 4282869953
0.18195556 0.92942768 30.596489 4282869953
-6.5120535 4.6311121 30.068058 4282869953
-6.7188678 4.9718285 30.265163 4282869953
