# .PCD v0.7 - Point Cloud Data file format
VERSION 0.7
FIELDS x y z rgb
SIZE 4 4 4 4
TYPE F F F U
COUNT 1 1 1 1
WIDTH 79
HEIGHT 1
VIEWPOINT 0 0 0 1 0 0 0
POINTS 79
DATA ascii
4.9922967 -0.10492993 2.1022363 4291349978
4.6832733 -0.17882897 2.4151752 4286289332
5.1325903 0.0033293185 1.9390032 4279968292
-147.16119 53.986908 11.623986 4289050845
5.0333037 -0.10353826 1.9262611 4279968293
5.4736934 -1.0204101 0.73692358 4290094399
5.1047845 -0.05432995 1.9869289 4288249919
6.7902112 -2.3320622 2.5150807 4286745745
5.966043 -1.5438327 2.4092658 4280035114
3.0833933 0.89151299 2.7007248 4287589935
4.9641294 -0.64834082 2.6866171 4286745745
3.0904236 0.8777473 2.6904435 4279245601
5.1611881 -0.036483813 1.8565747 4288577081
2.7949436 -0.25070518 2.0032852 4281549135
5.0929551 -0.10476352 1.8024021 4294836223
4.4540782 -0.7642172 1.4187107 4294377470
4.9871373 -0.65650123 2.6877589 4294377470
4.7626982 -0.32023117 2.270859 4286748600
2.4151077 0.45669919 1.5894719 4286932257
4.7727461 -0.3039057 2.241766 4278785805
4.9351335 -0.21172138 2.1166689 4279310874
5.2859588 -0.9671014 0.74278045 4283850337
3.1120551 0.67929786 2.1500289 4279310874
4.7588606 -0.40960902 2.5134785 4290094399
5.2041836 -1.1068698 1.2244223 4292735737
9.6998377 -1.6413699 2.2651217 4283786102
1.4757038 0.57869703 1.7787317 4287274157
3.1030123 0.68364042 2.0234654 4283978301
4.6821947 -0.12187336 2.4148185 4292735737
4.6535501 -0.21318686 2.4967306 4291152071
4.7740493 -0.41925597 2.3802009 4284240698
5.3955088 -1.0899159 2.9453921 4284248183
4.8562703 -0.20432796 2.2388909 4287720499
4.9351335 -0.21172138 2.1166689 4290761462
3.9779694 0.19775322 1.4083705 4290761462
3.1061945 0.68631148 1.9858527 4288258464
3.1055646 0.78694826 2.5028596 4287142050
5.2389522 -1.1787086 1.4833651 4294770687
5.3955088 -1.0899159 2.9453921 4278785805
4.7419372 -0.38898218 2.3903906 4283985020
3.0550988 0.91044694 2.6456966 4288054840
3.0692866 0.83688951 2.4358895 4290559161
5.0944004 -0.53840005 2.1296322 4291613660
6.6492362 -2.3690386 2.4772518 4285694094
5.0944004 -0.53840005 2.1296322 4287668392
3.0923102 0.86534369 2.6705959 4288125866
5.5282602 -1.845448 1.8112339 4282599506
4.7568803 -0.36487222 2.4441071 4286288811
4.8903461 -0.2009958 2.1561065 4284706175
-8.6583147 1.8462648 3.1004655 4284445558
4.6631722 -0.13368858 2.4392083 4293328125
4.8811784 -0.17779994 2.1831627 4286683301
23.426916 -8.7555313 0.4212842 4290694106
4.985754 -0.67428857 2.7252061 4294770687
5.4329376 -1.0478804 2.8865192 4285760661
2.8291123 -0.25030625 1.9899892 4284444274
4.8811784 -0.17779994 2.1831627 4290297278
2.8581328 -0.44286183 2.2148814 4287469221
8.0101471 -2.9169159 0.67120129 4285431957
4.4186549 -0.11270418 1.3901823 4294770687
3.1358171 -0.57189292 2.1261363 4287520818
4.7626982 -0.32023117 2.270859 4279902498
6.5657272 -1.9405682 1.0907557 4294836222
6.7972975 -1.9118413 1.1373769 4288776010
3.0539012 0.77333868 2.3700306 4286868271
3.0808794 0.85273594 2.6452515 4291021770
2.4337828 0.96903944 1.444912 4288968244
3.0755596 0.70510101 2.299644 4288783778
5.6377559 -1.9908254 1.9072676 4285695379
3.5742228 0.46211085 1.4126862 4289235608
3.0539012 0.77333868 2.3700306 4286353317
5.7327976 -2.0867493 1.9423575 4289836982
5.0817146 -0.31122333 2.0244749 4291682800
4.634459 -0.21922015 2.4427614 4294836223
3.5699968 0.44350597 1.1964566 4286221990
5.0368471 -0.59727675 2.2437634 4292397237
5.1206322 -0.033988234 1.7827091 4287135075
5.2021232 -0.70119965 2.1395564 4286088845
5.3419762 -1.0602942 3.0749395 4281281829
