# .PCD v0.7 - Point Cloud Data file format
VERSION 0.7
FIELDS x y z rgb
SIZE 4 4 4 4
TYPE F F F U
COUNT 1 1 1 1
WIDTH 234
HEIGHT 1
VIEWPOINT 0 0 0 1 0 0 0
POINTS 234
DATA ascii
95.823143 -0.31606451 1.5973507 4290233029
95.438484 -0.2907061 1.5307117 4290496201
95.074905 -0.26674584 1.4676071 4290759373
94.727776 -0.2438971 1.4075918 4290825935
95.993774 -0.020525333 1.4157796 4292732646
88.199509 0.19119243 1.029063 4292535782
92.007408 -0.13736652 1.2259122 4290959059
95.401321 0.00679293 1.3439053 4291284943
91.217247 0.19261296 1.1233535 4289970625
85.796082 0.32329825 0.87781054 4289708997
94.825378 0.040600523 1.2472435 4293721083
91.781898 0.13696818 1.1169913 4291220949
85.69043 0.33067879 0.86019254 4289314498
94.341217 0.061987791 1.1878148 4294114043
92.603981 0.10061118 1.1185496 4291418328
85.523582 0.34173837 0.84041065 4288985533
88.482849 0.4639729 0.92954385 4291088075
93.269341 0.32476771 1.1041008 4290693317
92.604408 0.02914918 1.0777764 4288786869
93.898956 -0.075375244 1.1269892 4290431695
93.939903 -0.11626446 1.1287158 4288327088
93.486938 1.1905441 1.0759624 4294112757
92.295708 1.1040404 1.0361611 4294179580
88.386131 0.46777153 0.90562868 4292601059
95.86348 1.3807921 1.1190205 4294836223
92.739372 1.1561912 1.0171487 4294047736
91.560379 1.0723401 0.98128086 4294178808
91.580017 0.4321847 0.98254806 4292009436
95.889572 0.30975658 1.1162763 4290496197
93.213753 1.2467459 1.0032141 4294311935
91.32444 1.0922616 0.94476265 4293654263
90.919373 1.0447453 0.93341577 4293653236
95.556763 0.49504599 1.066794 4291284938
91.106026 1.0819061 0.90960896 4291223006
90.454613 1.0246764 0.89367419 4292800752
88.040779 0.77904707 0.81086415 4290762202
95.872528 0.89710486 0.97777855 4291024602
94.908989 0.70520377 0.96249592 4294967295
95.068581 0.66524792 0.96599984 4294967295
92.356453 0.83278751 0.87026858 4288524727
89.97683 0.71813887 0.82921469 4291813086
95.362206 0.70704621 0.92837715 4292997099
92.149986 0.65867746 0.87047637 4294311933
94.758102 0.62434971 0.91874582 4293852408
95.799255 0.53365034 0.93461967 4290365895
84.313271 0.65649289 0.71487188 4289708481
89.98259 0.65360451 0.8039282 4293655799
93.051491 0.62561405 0.85208136 4293655799
95.903885 0.57924628 0.89548892 4293129455
91.527657 0.56212777 0.82495344 4289707195
82.650253 0.64471781 0.68580961 4287603622
85.230698 0.6543963 0.71804839 4287472034
88.796059 0.65089905 0.76333958 4289511357
92.550369 0.62574315 0.81072426 4290366409
95.793297 0.57975638 0.85128564 4290563531
86.782143 0.66224259 0.72148174 4287340196
89.430939 0.65181375 0.74661219 4287274657
92.360252 0.62518466 0.77444506 4287340450
95.643913 0.57967108 0.80589622 4287669415
94.173683 0.66158891 0.7535221 4287406252
95.507523 0.62215054 0.76225269 4287143080
92.033394 -0.10370308 0.6038664 4287669417
95.067444 -0.3125118 0.26136753 4286813063
92.784424 -0.16255888 0.29650179 4286944390
93.026688 -0.21452807 0.28853473 4286286715
93.170799 -0.18971007 0.24873364 4287338632
93.353706 -0.23863976 0.24211083 4286747007
93.589867 -0.21912371 0.19733943 4287667341
93.863022 -0.27567732 0.18692368 4287404422
94.07663 -0.25319195 0.14067397 4287996052
94.270844 -0.30562234 0.13265282 4287470217
94.476303 -0.28149405 0.084856585 4288127637
94.704597 -0.33747634 0.074776076 4287470217
95.029259 -0.36186752 0.019544777 4286746493
95.37719 2.2366576 -1.0008253 4284636758
95.646423 2.2968853 -1.0876647 4286412653
95.862709 2.3222241 -1.1577342 4286807406
95.325401 2.2191625 -1.0911685 4287464817
95.337944 2.1784601 -1.0921022 4287333230
90.908295 0.82053751 -0.6106779 4285229927
94.981102 3.6918638 -1.1687689 4289701015
95.756447 1.7801288 -1.2784655 4288451467
95.627037 -1.9863472 -1.2549443 4282072617
95.322044 -1.9748297 -1.2151027 4282072618
95.346146 -2.0220983 -1.2187213 4281809704
95.418854 -2.0786185 -1.2287672 4282137906
95.523392 -2.141623 -1.2430509 4282334773
95.6399 -2.2076061 -1.2588891 4282203695
95.818108 -2.2864223 -1.2828633 4282072617
94.005165 -0.84564161 -1.0736116 4283122228
94.050331 -0.88877892 -1.08047 4283188020
94.159286 -0.93936503 -1.0963074 4283122227
94.208855 -0.98392779 -1.103719 4283056691
94.411949 -1.0471647 -1.1325217 4283254069
94.672997 -1.1193439 -1.1688601 4282991154
95.419243 -1.3965032 -1.2595925 4283911738
95.739105 -2.0073416 -1.3133253 4282269998
95.463715 -2.0015361 -1.2765229 4281940779
95.468796 -2.0457311 -1.2776185 4281743914
95.531242 -2.1006999 -1.2864805 4281875505
95.630997 -2.1631255 -1.3004243 4282137907
95.744415 -2.2288229 -1.3161961 4281941294
95.903854 -2.3042574 -1.338174 4281875754
95.957306 2.2453034 -1.393608 4284701515
95.957222 2.1983631 -1.395075 4285754460
95.807022 -1.2591094 -1.3708909 4283516731
95.629654 -1.2825346 -1.3445513 4283385145
95.765991 -1.3432065 -1.3647332 4283056180
95.779778 -1.3898189 -1.3663005 4282990387
95.865173 -2.0307839 -1.3744181 4282270509
95.591866 -2.0258181 -1.3369427 4281809705
95.592873 -2.0696437 -1.3374777 4281547048
95.640327 -2.1221983 -1.3444126 4281679153
95.732559 -2.1835191 -1.3576019 4281744689
95.842949 -2.2489185 -1.3733058 4281744687
95.463638 2.5796518 -1.3708302 4285558366
95.596603 2.5546699 -1.3888452 4286281061
95.864029 2.5464506 -1.4255923 4286740838
95.57048 2.3762333 -1.3855813 4285293136
95.598076 2.3363853 -1.3890617 4284635207
95.615715 2.29545 -1.3910168 4285029967
95.875824 2.2816312 -1.4268423 4284832844
95.831268 2.2297876 -1.4223176 4284898893
95.949013 2.1980784 -1.4386542 4285491032
95.741615 -2.0540407 -1.4011917 4282073131
95.727325 -2.0955405 -1.3994983 4281810218
95.754402 -2.1446855 -1.4036804 4281810738
95.840195 -2.2051203 -1.4162267 4281876531
95.413177 4.0849857 -1.4045464 4288188289
95.532516 2.6321499 -1.4246057 4285689696
95.333473 2.5625129 -1.3954344 4286214753
95.568611 2.5515978 -1.428364 4286411872
95.816895 2.5409815 -1.4632088 4286543198
95.728767 2.439585 -1.4520364 4285161293
95.723625 2.3952174 -1.4510518 4285161551
95.606728 2.3379862 -1.4339217 4285030223
95.625572 2.2972152 -1.4360858 4284767308
95.911552 -2.1310022 -1.4690423 4282731058
95.875 -2.1689012 -1.4639615 4282600500
95.781029 4.2162337 -1.5036095 4290031009
91.595398 2.3806174 -0.88632578 4287333747
94.90966 2.5870795 -1.3779384 4286083941
94.982368 2.556442 -1.3877327 4286543972
95.060555 2.5261049 -1.3983703 4286609248
95.242401 2.5089564 -1.4242393 4286674783
95.155136 2.4559791 -1.4107648 4287464045
95.383636 2.4423559 -1.444288 4287990133
95.813171 2.4503722 -1.5085286 4285292879
95.839851 2.4093516 -1.5123595 4285622102
95.742996 2.3543696 -1.4976451 4284898636
95.734009 2.3101568 -1.4957118 4284701516
95.53051 2.2414074 -1.4673202 4285622360
95.758362 2.2228718 -1.5004866 4283977535
93.58638 2.7380297 -1.2243093 4288979088
91.520027 2.3674448 -0.90787554 4287663486
95.106491 2.6577697 -1.448723 4285754974
95.016159 2.6027074 -1.4352777 4286675044
95.039429 2.5649264 -1.4379339 4286806625
95.041649 2.524086 -1.4375415 4286806370
95.139473 2.4954541 -1.4517797 4286477405
95.146881 2.4538074 -1.4531134 4286213980
95.41259 2.444252 -1.4933445 4285556051
95.799385 2.4491756 -1.5508009 4284963915
95.93856 2.421129 -1.5719367 4284832329
95.814903 2.3627794 -1.5528877 4284503622
95.677132 2.3031921 -1.5320094 4284766794
95.256226 2.2101119 -1.470701 4285293139
95.618027 2.2079117 -1.5239077 4285358932
95.337791 2.7331066 -1.5273061 4285492060
95.263535 2.6797779 -1.5157064 4286149728
95.107903 2.6161656 -1.4911031 4286477663
95.039642 2.5653794 -1.4799823 4286609246
95.042267 2.5246441 -1.4796388 4286477405
95.133461 2.4948702 -1.4933792 4285951062
95.184158 2.458919 -1.5012647 4285490256
95.571365 2.4647362 -1.5606896 4285293133
95.816856 2.4515944 -1.5979317 4285161295
95.852768 2.3237429 -1.6027466 4284635208
95.742371 2.2655323 -1.5869182 4284832588
95.826042 2.2304089 -1.5997243 4284635209
95.573776 1.8990061 -1.5608952 4284372552
95.089272 1.8151379 -1.486806 4285952097
95.016441 1.7681738 -1.475261 4285820767
94.53241 4.4022894 -1.4384168 4286674531
94.353722 4.1085491 -1.4176909 4290228129
95.47438 3.0974171 -1.59451 4285820770
95.774529 2.7970178 -1.638646 4286215005
95.459 2.708436 -1.5886763 4286345819
95.209618 2.6305902 -1.5494037 4286148697
95.07608 2.5704339 -1.5279909 4286016855
95.050377 2.5254498 -1.5235083 4285819222
95.109131 2.491823 -1.5321352 4285292878
95.335945 2.4790068 -1.5672994 4285029707
95.829773 2.4976323 -1.6445984 4285227086
94.917252 1.8404865 -1.5033885 4285162581
95.195816 1.8197918 -1.5479126 4283846466
95.52758 1.8041867 -1.5995494 4283321148
95.362839 3.1414948 -1.6002854 4287267954
95.678192 2.7405207 -1.666594 4286280027
95.378334 2.6548216 -1.6186534 4285621841
95.285004 2.5986125 -1.6040751 4284898120
95.289597 2.5574565 -1.6040397 4284766535
95.233803 2.5085559 -1.5942793 4284503620
95.597679 2.5129218 -1.6519493 4284569156
95.134087 1.8595011 -1.5797083 4284767823
95.118263 1.8160249 -1.5771705 4284503883
95.074028 1.7710122 -1.5698383 4284307017
94.421227 1.3877255 -1.4695656 4285558881
95.838394 2.7190073 -1.736848 4285227338
95.496902 2.6282346 -1.6810999 4284635461
95.650818 2.6060281 -1.7056398 4284503620
93.887955 2.3324642 -1.4187671 4284898635
93.103661 2.1954539 -1.2901676 4285753944
95.845879 1.8339808 -1.7369097 4283780929
95.89669 2.6833875 -1.79062 4284503875
95.044395 1.6801429 -1.6517663 4284636751
95.083069 1.641453 -1.6579334 4284768595
95.062492 1.5989286 -1.654192 4284373837
93.983665 4.2504573 -1.5091445 4288715403
93.362518 2.2220371 -1.4114274 4284635977
94.360649 1.6711837 -1.5785227 4284438858
94.227013 1.6218476 -1.5558815 4284635982
93.934746 4.2812705 -1.5311513 4288320387
95.454369 5.2579122 -1.8542624 4288057205
94.292824 4.7413845 -1.7095904 4287332460
94.501282 1.8261499 -1.8130412 4285161814
95.830711 5.2508402 -2.0902202 4285820508
95.435226 5.0927472 -2.0039959 4288386950
92.305473 2.3293207 -1.4343506 4284635201
94.716476 2.6569037 -1.8767209 4284700997
94.806465 4.9389544 -1.9311126 4289044879
94.967033 2.7356555 -1.9652719 4285687891
95.895271 2.8324554 -2.1389527 4285359440
95.204247 2.7287407 -2.0532017 4284700997
