# .PCD v0.7 - Point Cloud Data file format
VERSION 0.7
FIELDS x y z
SIZE 4 4 4
TYPE F F F
COUNT 1 1 1
WIDTH 1398
HEIGHT 1
VIEWPOINT 0 0 0 1 0 0 0
POINTS 1398
DATA ascii
-0.50282246 1.0839484 9.5025043
-0.50282246 1.0839484 9.5025043
-0.9071213 0.77265298 9.6580954
0.14502026 0.29155469 9.1365995
-0.32761356 -1.1535699 9.1156502
-0.9063499 0.64461786 9.6251783
0.33936608 0.51023567 8.9991312
-0.29675317 0.88858104 9.4200859
1.0893018 1.0460995 8.717061
1.6757256 0.58144391 8.3085899
-1.1721264 0.86783862 9.7582731
1.555276 0.37660727 8.3340139
1.7410583 -0.90937704 11.74194
1.1823136 0.29224658 8.5703583
0.88505793 0.53676498 8.7569342
1.4381903 0.30938572 8.3377752
4.1052999 -0.56352293 8.9206152
0.98172981 0.056756139 8.5446005
-0.93707657 0.71533406 9.6386261
0.83413506 0.95979494 8.9301281
0.98172981 0.056756139 8.5446005
-0.56580293 1.1263885 9.5330515
0.020648222 -0.67680156 9.0176525
1.1010748 -0.94340467 8.3230534
-0.59927911 -0.55740893 9.3418026
-0.99595183 0.72014153 9.7046041
0.98172981 0.056756139 8.5446005
-0.13977075 0.90096331 9.2904387
1.746197 0.69109231 8.2612467
0.69983947 0.83318841 8.8421402
0.86908412 1.1085781 8.8870029
0.13372257 0.4396857 9.12603
-0.73202115 1.3093327 9.6868801
1.559153 -0.14165434 8.2422905
-0.91617674 1.314659 9.659914
0.66226035 -1.4944865 8.5560217
-0.42683837 0.93974113 9.474431
0.076767109 -1.4711888 8.8004665
0.91099793 -0.40231571 8.6127729
1.0779452 0.33606267 8.5804691
-0.20710434 1.2225599 9.3346491
0.018336803 0.22806685 9.1472521
0.86908412 1.1085781 8.8870029
0.11172076 0.23150784 9.1062603
-0.026064442 1.022103 9.1942129
0.90646702 -0.31073204 8.6089096
-0.37371367 -1.8267299 8.9618559
-0.96946073 -0.2076543 9.5531359
1.6052272 0.56744611 8.3139162
-0.44613567 1.2742923 9.4978638
1.1046786 0.59217083 8.6100903
-0.92395139 0.86896306 9.676075
-0.24833828 0.021222088 9.2905235
1.0454233 1.3095051 8.7652931
-1.0303648 -0.17216869 9.5444994
0.83413506 0.95979494 8.9301281
-0.7691626 0.92275089 9.6754675
1.1042557 0.65133214 8.5802126
1.051307 1.2038625 8.7729282
-0.0044903648 -1.3990787 8.8296642
-0.026064442 1.022103 9.1942129
-0.55579454 1.3230972 9.5935345
0.57315964 0.069218613 8.8739128
-0.84775054 -0.79114592 9.3739462
0.75927144 0.57648039 8.7889557
0.081361338 1.2311705 9.2854271
0.018336803 0.22806685 9.1472521
0.89410764 0.34043214 8.7431717
1.0390893 1.1113963 8.7376595
1.559153 -0.14165434 8.2422905
0.73613369 0.15901013 8.7744389
0.34675673 0.40297499 9.0180693
8.7702322 7.0207009 94.187981
-0.42356175 -0.4186326 9.2977314
-0.067805402 0.90705204 9.2921
-0.91952127 -0.77518743 9.360136
4.3912978 -0.57184368 43.88271
-0.45602888 -1.3290364 9.1817198
1.719002 -0.1197817 8.1236706
1.555276 0.37660727 8.3340139
1.6370622 -0.25156435 3.5526066
1.1271967 -0.42289165 8.4235535
0.38856041 -0.24356464 8.8806829
-0.44613567 1.2742923 9.4978638
0.73613369 0.15901013 8.7744389
-0.56081676 0.41414583 9.4636078
0.23829861 0.11410902 -5.9676065
-0.87023318 1.3589238 9.643158
-0.87603468 -2.4437084 9.2532511
0.95427859 1.3064609 8.802537
-0.7339986 -0.62415588 9.3496027
0.08908917 1.0917751 9.2863283
-0.57180446 1.1879169 9.5580397
1.6370622 -0.25156435 3.5526066
-1.0485409 0.8014462 9.7003107
1.4123816 -0.50905234 8.247406
1.013302 1.2700844 8.8165016
1.0514274 -0.2289841 8.524087
1.5459435 1.3066652 8.5113182
-0.9063499 0.64461786 9.6251783
1.1040019 -1.0039288 8.3287258
-0.63719767 -0.62142599 9.3184347
-1.0011425 -0.051477697 9.5823755
0.942388 -0.26106715 8.5988522
1.9683183 -0.26199204 4.276166
1.7245383 -0.77921814 7.9812679
-0.23787823 -0.14177185 9.2457294
0.85958654 -0.090746723 8.70856
0.3052153 -0.22826324 5.2153478
0.33447978 -0.28546289 8.9209824
0.85958654 -0.090746723 8.70856
1.1718481 0.59712285 8.6193104
0.53640175 0.017056618 8.8841753
-1.3402115 1.2748849 9.80968
-0.18993913 -0.84505159 9.1210899
-0.0044903648 -1.3990787 8.8296642
1.4161983 -1.1545743 8.0652094
0.39948469 -0.4613741 8.8950748
-0.7339986 -0.62415588 9.3496027
-0.38430741 0.20139822 9.3105383
0.34993714 -1.0860296 8.7619877
-0.29720038 0.20994456 9.344656
-0.020770987 0.94066685 9.2961884
-0.49570328 1.1726327 9.5060263
-0.15118194 -0.013646983 9.2368908
0.35984728 1.0387384 9.0982189
-0.44690359 1.028644 9.5087919
7.4909029 -0.73867118 75.36631
-0.091934696 0.86063468 9.2834358
0.42899415 -0.20462807 8.8832312
0.70246327 0.70363814 8.8473644
-1.0837383 0.010543943 9.6182861
1.355008 -0.37973872 7.1624556
10.415358 7.1026335 109.60471
-0.51763952 -0.061943322 9.3642101
1.5182301 -0.033817723 8.3122396
0.34519428 -1.4415359 8.6387253
1.051307 1.2038625 8.7729282
-0.14654155 -0.87621772 9.0969105
0.60611415 -0.20745887 3.9999604
1.303861 0.83832568 8.5474453
0.79002404 -0.45251146 8.554636
0.91099793 -0.40231571 8.6127729
0.36064056 0.94270265 9.0403566
0.89410764 0.34043214 8.7431717
-0.44126335 0.2558277 9.3616142
0.6555118 -0.33465564 8.7450914
0.93642902 -1.0841118 8.4120226
1.3820705 0.72386444 8.4482985
1.1260124 -0.13408518 8.4806156
0.34519428 -1.4415359 8.6387253
0.62894636 -0.066397302 8.8178482
-0.65159142 0.2511977 9.4506588
-0.19456585 0.84176803 9.4098492
-0.63552237 -2.3774335 9.0876408
1.6380709 -0.30639642 7.1662416
1.5916816 -0.25602257 8.2126598
1.4472176 0.25198227 8.2681942
0.79333639 0.1507996 4.3822098
0.32580134 0.51355684 -8.2680521
1.1779466 0.67755741 8.6374798
1.204071 -0.41959739 8.4457731
-0.075332075 -1.6197008 8.9062958
0.26400256 -0.31482434 3.1883481
0.31699005 0.18781769 -8.3142328
-0.26667243 -0.19037585 9.2118025
1.7559271 0.68425936 8.2757006
-0.96860689 0.82032973 9.6468458
0.25269431 -1.0302389 8.8132133
-0.29720038 0.20994456 9.344656
-0.81699675 1.3374845 9.6375551
1.5512036 -0.38192695 3.5251954
-0.55316758 0.32590634 9.4131012
1.114542 0.28317353 8.4432449
-0.42356175 -0.4186326 9.2977314
-0.46221563 -1.1509433 9.1580391
8.7702322 7.0207009 94.187981
0.11930633 -1.2662268 8.8014565
1.719002 -0.1197817 8.1236706
1.355008 -0.37973872 7.1624556
1.722957 0.5832113 8.2543659
1.0270152 -1.3217099 8.3237238
-0.091934696 0.86063468 9.2834358
-0.76253569 -0.97303963 9.3233528
0.34061161 1.3916789 9.2149258
0.26605892 1.1357133 9.1451368
1.7015623 -0.94478083 7.9195542
-0.76464528 -0.22581947 9.4352579
-0.51763952 -0.061943322 9.3642101
1.3439223 0.78956795 8.5424547
1.13837 -0.82886052 8.3355455
0.36578962 -1.8800539 8.5946445
-0.99093658 -1.0049207 9.4401217
1.3677636 -0.52712429 8.2854109
1.3367362 -1.5758214 8.0092793
-0.53275144 -0.39757514 9.3356056
1.6588149 -2.0116799 10.16749
-0.55316758 0.32590634 9.4131012
0.23615648 -0.069162957 3.7354302
0.73836309 0.095256314 8.7434769
-0.27342349 0.82467389 9.40903
0.82827997 0.65388131 8.7344103
1.0013371 -1.7192287 8.2596149
0.69763446 0.12800814 8.7599239
1.5459435 1.3066652 8.5113182
0.91017711 -0.20441325 8.6266479
-0.62024039 0.42539239 9.4788237
-0.095356084 -0.41661063 9.1447964
0.58159345 0.9165051 8.9263268
0.44838941 -1.6801831 8.5694714
1.3646007 -1.1712389 8.1421881
-1.3269292 1.088101 9.853549
0.97875953 1.6745509 23.336365
-1.1831686 -1.1536186 -22.950369
0.19242075 -0.4769533 9.0135212
-0.44685134 0.48213282 9.3775406
-0.96860689 0.82032973 9.6468458
0.79002404 -0.45251146 8.554636
-1.1831686 -1.1536186 -22.950369
-0.037713237 -0.057703614 9.1641665
1.013302 1.2700844 8.8165016
1.234134 0.82019556 8.6289234
0.94362026 0.40410846 8.6398211
-0.53333002 0.24241939 9.4469442
-0.42400703 -0.76666218 7.0003014
-0.44690359 1.028644 9.5087919
-0.066180579 -0.42377058 4.5336065
0.56457025 -0.32437032 5.3020058
1.3018097 0.87069607 8.5715561
0.30673537 1.2319361 9.1184702
1.4436315 0.31487894 8.4083662
0.26400256 -0.31482434 3.1883481
-0.015801134 -0.1151944 9.1131172
1.6315206 -0.2996558 7.166203
-0.80434346 1.1918736 9.6322966
1.2412971 0.00063705817 8.4411678
1.1046786 0.59217083 8.6100903
1.3182329 -0.50741422 8.338871
1.4157449 -0.32951853 7.2643132
4.829226 1.9125051 -61.322372
-0.67269546 -0.60973573 8.9656086
0.39598694 -1.7524801 8.5908413
-0.29703757 0.12400693 9.2893505
-0.62161225 -1.8329716 9.1227217
-0.31741908 0.52308142 9.400404
0.54025483 0.804416 8.999094
1.4086212 0.20566371 8.3842154
0.39820072 0.24848321 8.9304562
1.2085345 -0.82695913 8.3471298
1.5779188 1.2726547 8.5072088
0.53224289 -0.84633553 8.6913795
0.39505756 0.22174636 -3.1034114
-0.48937896 0.3007735 9.3740606
-0.63114691 -1.8450933 9.143383
-0.93707657 0.71533406 9.6386261
-0.043460589 0.33139032 -8.9079103
-0.44126335 0.2558277 9.3616142
0.34567472 -2.3499138 8.4289961
0.83196479 -1.4852805 8.390172
0.84858906 0.20280434 8.6312532
1.113844 0.21939154 8.5430412
1.114542 0.28317353 8.4432449
0.62938422 0.066799209 -7.0114446
1.6868647 -0.31456137 8.1662054
1.1885842 0.22013579 8.5705242
1.7574452 0.33088598 8.1749306
2.0823116 -2.2056777 14.471041
1.6994941 0.40943792 8.264719
1.2098624 -0.75166571 8.3259535
3.0710657 -4.6085033 25.894833
-0.30618739 -1.3090776 16.076967
1.4123816 -0.50905234 8.247406
0.38856041 -0.24356464 8.8806829
-0.11994361 -0.90406358 9.0613346
1.2741898 -0.65404105 8.3228016
0.43914518 -0.5026105 8.8438768
0.93256807 -0.36108634 8.6000757
-0.85238934 -2.3539104 9.2622252
0.78053206 -0.34041947 4.8602343
-0.29703757 0.12400693 9.2893505
1.7229431 -1.4075574 7.8326969
-0.43500808 -1.2140914 9.1224623
1.2412971 0.00063705817 8.4411678
-0.51763952 -0.061943322 9.3642101
1.6270907 -0.79714805 8.0659733
0.61415547 0.026900833 8.8152885
-1.0986983 0.67260557 9.6657324
1.4548994 -0.45649165 8.2347164
-0.85084796 0.99896759 9.5953312
-0.33967739 -1.8664424 8.9567699
2.0627916 6.3457193 -66.156334
-0.28510404 -1.8213606 8.9137287
1.2555372 0.016954979 8.4683638
0.82827997 0.65388131 8.7344103
0.78379774 -2.004962 8.2829227
0.61415547 0.026900833 8.8152885
1.1771833 0.29396355 8.4683533
-0.31741908 0.52308142 9.400404
0.95751345 -1.091049 14.237746
1.4892298 -1.7692968 9.1040783
-0.80434346 1.1918736 9.6322966
1.7246748 0.52720374 8.2420874
0.7424137 1.0208954 8.7808876
0.46345827 0.64649296 8.9507093
1.6015133 -1.4330298 7.9072824
-1.3286639 0.77733499 -23.150578
0.91009134 1.2927585 8.8967762
0.41886351 -0.34666467 2.4045117
0.54298222 -0.076137297 8.8979893
1.127219 -1.5311373 8.1794891
0.32046422 -0.10644056 2.8045409
1.2665212 -1.3641071 8.1930895
1.0674956 0.48066103 8.630147
1.0551262 -1.7505865 8.2980146
1.0779452 0.33606267 8.5804691
-0.13711882 -0.68768686 9.1378441
-0.2852284 0.67324084 9.4068108
0.78461301 -0.092823237 8.6950617
1.5470909 1.1595255 8.5181389
-0.49443215 -1.2768584 9.1766052
1.0208132 -1.5615126 8.2853279
0.17649055 1.0985717 9.223465
0.32939512 -0.1948971 3.5010953
0.62227708 0.40794471 8.8351173
1.4436315 0.31487894 8.4083662
0.15993984 1.0701089 -7.1620054
-0.83352596 -0.18288751 9.4645462
0.24632931 -0.14366172 -6.1808944
1.6808912 1.2389256 8.422492
1.7210506 -0.015424727 7.7825794
-0.16106836 -0.73789281 9.1281509
-1.3922974 -1.8141851 -27.706923
1.7245036 -0.83002555 7.968915
0.74540907 -0.66857684 6.4820213
0.23615648 -0.069162957 3.7354302
-0.79571277 -2.4532311 9.1979322
0.42627537 -1.0654134 8.7027111
1.0633937 0.54343414 8.6289454
-0.67245638 1.1220179 9.6081305
-0.58810878 0.47408545 9.4593468
-0.29288566 -1.0439507 9.0909023
0.85319203 0.28199285 8.768014
1.3292754 -0.56383121 6.4571571
-0.49443215 -1.2768584 9.1766052
-0.33967739 -1.8664424 8.9567699
1.6649662 -1.5092784 7.8443785
1.7559271 0.68425936 8.2757006
3.057313 -0.5990544 -35.316933
1.7755116 -2.2218513 11.480968
0.23316121 0.51041603 9.0571012
1.0165124 -1.688987 8.2534189
1.5054407 0.31431481 8.2901392
0.88505793 0.53676498 8.7569342
-1.4827311 1.0258865 9.7535763
1.4381903 0.30938572 8.3377752
1.0042028 -1.0436617 8.4041433
-0.43500808 -1.2140914 9.1224623
0.21237303 -1.6794113 8.7329655
0.11489698 0.14207381 9.1548824
-0.99093658 -1.0049207 9.4401217
0.36116874 0.42923686 -3.805383
0.84858906 0.20280434 8.6312532
-0.83662814 0.59639126 9.5997353
-0.26667243 -0.19037585 9.2118025
1.0271761 -0.92586696 8.3870373
0.020648222 -0.67680156 9.0176525
-0.0039058838 0.6354509 9.2159405
1.1771833 0.29396355 8.4683533
0.0059346505 -1.5929083 8.843524
1.5455378 0.51910925 8.3894949
0.1282102 -0.23271114 9.0706406
0.60971051 -0.21810426 2.8830268
1.1115201 -0.87387866 8.3522587
1.7310432 -0.65431428 7.9564543
1.154775 -0.44903886 7.7993183
0.97248381 0.13484879 17.278427
-0.28510404 -1.8213606 8.9137287
0.85319203 0.28199285 8.768014
0.942388 -0.26106715 8.5988522
0.35984728 1.0387384 9.0982189
0.70246327 0.70363814 8.8473644
1.3230908 -0.26834166 8.361639
0.50972539 -0.54105204 8.7844076
-0.2432171 -1.7659132 8.9390488
0.8145172 -0.18320569 5.6753235
0.38073623 -0.30768034 -4.8166652
0.3052153 -0.22826324 5.2153478
0.4526746 -1.7908967 8.5126104
1.654783 -1.4255666 7.8879666
0.79333639 0.1507996 4.3822098
0.23647799 0.46234545 -4.764554
-0.72881353 1.1740596 9.6144257
0.80006671 0.42211279 5.8329453
0.45543578 -0.12263232 2.6553102
0.1282102 -0.23271114 9.0706406
0.9259491 -1.8860941 8.2874212
-1.3286639 0.77733499 -23.150578
1.3230908 -0.26834166 8.361639
0.38174972 -0.079794928 -4.6071224
1.5819931 -8.5080481 59.136417
-0.67225713 -0.21760072 9.4115324
-5.5495138 11.995984 -78.874519
0.64330143 -1.3312131 8.5473051
0.4068369 -0.048688028 -3.4137359
1.1921599 -0.057676423 8.4599237
1.0165827 -0.183988 8.5786133
1.3345912 -1.7977049 7.9631329
1.1042557 0.65133214 8.5802126
0.38322797 -0.17932791 -5.0197048
-0.78303063 1.3705274 22.332741
0.98480088 -0.9008022 8.4231596
0.43261272 1.5917002 -20.663586
-0.63719767 -0.62142599 9.3184347
1.5261158 -0.53155172 6.3924084
1.6585267 -1.4784689 7.8282523
0.36805612 -0.16135807 -4.6432829
0.56597024 -0.65532398 8.7427139
1.0893018 1.0460995 8.717061
0.47845715 -0.26747826 3.3001261
-0.86691374 -0.12333255 9.4912958
-0.46359038 -0.83932799 9.2037077
0.2848559 1.1819059 9.1581306
-0.48937896 0.3007735 9.3740606
1.3077086 -1.9745505 7.9624114
0.30847818 -0.033453751 2.1402993
-0.59927911 -0.55740893 9.3418026
0.59196711 -1.4093162 -16.025196
0.75042558 0.56562805 8.7590942
1.6558527 -0.37532562 3.5572066
0.41219082 -0.98106241 8.6639271
1.4419773 -0.033974785 8.2897282
0.80098605 -0.15096721 5.3612862
0.37274322 0.032926444 -4.9060898
0.35705733 0.14541963 -4.2095637
-0.380252 -0.53495276 9.2160978
0.79955125 0.95937377 18.891365
1.1592755 -0.1181301 7.9817429
-0.380252 -0.53495276 9.2160978
-0.25724676 0.087600306 9.2990093
1.7197369 -0.90333539 7.9508386
1.6951932 -0.90794212 3.3089912
0.96925592 0.33374715 8.6743336
0.61855561 -0.046743929 3.3846207
-0.88846368 -0.90785319 9.3635588
1.7155401 -1.4925164 7.8050237
-0.14786103 1.0391283 -9.9695263
0.41293705 -1.8127083 8.5988655
-0.43519902 -1.8948425 9.01542
0.13452454 -0.3397406 3.0466542
0.35897291 0.29498813 8.9855042
0.62069011 -0.10275362 3.336097
1.4406059 0.97180855 8.529685
1.2645831 -1.1910264 8.2136974
0.51760006 -0.3276411 2.3966975
1.7994241 -0.19784756 3.5929749
-0.14559191 0.3600544 9.2251062
0.19929646 -1.3490341 8.8385763
0.044619612 -0.15384808 9.102191
0.88795584 -1.3903791 11.934066
0.75042558 0.56562805 8.7590942
-0.11569905 -1.6796477 12.717093
1.709134 1.913407 -40.537056
0.45057744 0.13301675 -4.8391876
0.19226667 -1.257723 8.7982864
-0.050733931 -0.89460576 9.0577278
1.3230908 -0.26834166 8.361639
0.51096094 -0.78086299 7.5797105
0.96305954 -0.88070947 14.712519
0.59747714 -1.3039511 8.5660076
0.08908917 1.0917751 9.2863283
0.74668789 -1.9407867 8.303421
1.4767817 -0.029536381 7.9032884
1.154775 -0.44903886 7.7993183
1.2506292 -1.2605953 8.1828814
-1.0744506 -1.0159724 -23.329002
0.3774887 -0.093517557 -5.0047131
0.70489711 0.9220075 8.8701849
2.0823116 -2.2056777 14.471041
0.13165915 1.3329818 9.2880249
0.073617943 1.3256752 9.2923717
-0.25724676 0.087600306 9.2990093
0.77934825 -0.40136939 7.4885831
0.8933416 -1.1379534 8.4224501
0.60971051 -0.21810426 2.8830268
0.26540172 0.94760513 -9.519187
0.59410578 1.2071337 8.9905109
0.062382668 -1.3923501 8.802928
0.62091321 0.0088214651 -7.4895577
0.16738629 -0.90122491 8.8836927
0.36578962 -1.8800539 8.5946445
0.81620181 -1.9741685 8.2747335
-0.7647689 1.0083603 9.5412903
1.1260124 -0.13408518 8.4806156
0.99355614 -1.5951601 8.2676411
-1.3634717 1.3630141 -23.033396
-0.86691374 -0.12333255 9.4912958
0.79878736 -0.86884296 6.4077601
1.5325382 0.23550493 8.4108315
1.5997095 1.1423244 8.500412
0.074032001 -0.080639713 3.9954772
0.96335036 -0.39795238 8.5600967
0.91009134 1.2927585 8.8967762
-0.46359038 -0.83932799 9.2037077
1.4586858 -1.0436773 8.1139927
-0.91643178 -1.5942122 9.3094616
0.5646283 -0.56776565 4.6802545
0.61360139 -0.22138228 2.8861108
1.7248607 0.37453169 8.2395859
-0.51738054 -2.112119 9.0215378
0.93989116 0.51929808 8.7080956
2.0627916 6.3457193 -66.156334
1.5734408 -0.31620184 8.1990566
1.2046707 1.5979398 -33.730862
-0.83662814 0.59639126 9.5997353
1.1659758 0.58359742 8.4897385
4.2474728 -2.377203 -109.28171
0.54791546 -0.72720748 -16.230968
-0.21586375 -0.95567513 9.0994568
0.56571919 -1.542551 8.5789967
4.5506735 0.20211291 46.218102
-1.0018699 1.0234642 22.929373
1.5041875 0.96002722 8.4224825
1.3907139 0.84843946 8.5159864
1.6679559 -2.0166287 10.14924
-4.0739913 -11.441403 78.222908
1.3907139 0.84843946 8.5159864
1.5284768 -1.6598525 7.9119458
-0.022415832 0.65569425 -7.4413638
0.36386716 -0.42847228 8.9007797
2.3990564 -2.6321106 17.39196
1.5512036 -0.38192695 3.5251954
0.97930437 1.1479396 8.7845926
1.4335901 1.0388373 8.4827404
0.6507982 0.15310282 8.8207254
0.67785656 -0.72701138 -15.498055
0.6037721 -2.2853973 8.405797
0.41219082 -0.98106241 8.6639271
0.38845196 0.55653435 8.9974298
-16.668472 23.106312 -341.24985
1.7411491 -1.6842718 7.7520213
1.6198292 1.3149346 8.4593744
0.032522045 -2.1536703 8.7240629
0.34173736 -0.96462744 -9.0543976
1.3486468 0.086619034 8.7742043
1.4418465 0.60949695 8.365736
0.30048755 -0.23368612 5.2142925
1.0081053 -0.64038956 6.4376292
0.97520882 0.69694394 -13.558881
1.3790196 0.15109451 8.3893156
0.75395083 -0.58005911 8.5712881
2.7215054 6.2926631 -35.092747
-0.65719122 -1.4788342 9.1820803
0.076081134 -0.62961745 9.0047884
-16.347527 23.084332 -302.38559
0.8145172 -0.18320569 5.6753235
-0.38412732 -1.9560533 8.9899073
1.722957 0.5832113 8.2543659
1.1525358 -1.4917006 8.1856327
1.5734408 -0.31620184 8.1990566
0.47909218 0.80247617 -18.603439
1.6380709 -0.30639642 7.1662416
0.42972836 -2.3309152 8.39153
0.97248381 0.13484879 17.278427
-0.34782171 0.63138175 9.6137114
0.98476136 0.54879612 8.6502695
0.42900258 -1.1214037 8.6943645
-0.46175477 0.37037164 9.4038363
-1.1176888 0.82815516 9.6848135
0.029755717 1.3500812 9.257926
0.90911847 0.48336542 8.763936
0.92080194 -1.8116192 8.3241825
0.41911843 1.3541986 9.0820942
0.092143096 -0.23159941 5.043047
0.36064056 0.94270265 9.0403566
0.96531951 1.1471645 -13.052819
-0.83352596 -0.18288751 9.4645462
0.19117285 -0.46952665 7.9910111
0.67717689 0.046687011 8.8434706
0.54511517 0.29383963 6.2791152
1.2803277 -1.2973714 8.1815319
1.6981288 -0.2659227 8.1068373
-0.84926176 0.031549774 9.5129404
1.1615916 -1.8878587 9.5351896
1.113844 0.21939154 8.5430412
-0.075990632 -0.70488477 -10.205564
-0.18560305 0.090780437 9.248477
0.55574989 0.25775898 5.8234181
0.291013 -0.34875876 17.441389
0.024521602 -2.215214 8.6939287
0.23331015 -0.45205843 2.5591135
-0.018368278 0.1033175 9.1026697
4.0791969 1.2834241 -56.548222
1.3770772 -0.57225281 8.2376404
0.47230867 0.10793916 3.2892935
0.72514939 -2.0884371 8.3073111
0.72856653 -0.50344604 4.2984486
-0.0086760782 -1.5127249 8.8398218
8.2177019 8.2267199 178.98485
0.59575403 0.17410667 -7.9911103
1.1560705 -1.7400625 8.0866632
0.30834994 -1.4230549 17.082455
1.6910448 -1.4450958 7.8354654
12.365709 17.494043 -197.88133
2.0811481 -3.7224348 -47.023193
1.9271877 -0.66501391 12.896951
-0.40858206 0.52302551 -2.844651
0.38177043 -0.14842026 -4.8209558
1.6283516 -0.14599408 8.1819248
-0.76253569 -0.97303963 9.3233528
0.58096296 -0.25223684 2.6048388
0.47750694 -0.36566567 -6.0546889
1.7066934 1.3011862 8.4046516
0.37204984 -1.7174799 8.6153088
0.8344903 -0.39147267 7.5573936
-1.0768384 0.88282084 9.8184681
0.88902074 1.165256 -12.275582
3.5059013 3.2391927 -49.755814
4.8148732 2.3453493 50.622566
1.6391089 0.37781534 8.2856388
0.28773391 0.38608903 -3.8773293
-0.24231903 -0.65833658 9.1590824
0.57748741 -0.2150389 5.2483912
0.95965064 -1.7480158 8.2849998
1.8986554 -0.96410275 12.124386
5.1053114 -6.4914145 47.898689
0.52150035 0.71360731 8.9856243
-1.169034 0.32205439 -22.194439
0.49043995 -1.6207296 8.5253124
0.49345881 0.4956778 5.7910562
1.5676442 -1.6163323 7.9191561
0.67142975 -1.9553576 8.3715982
0.42899415 -0.20462807 8.8832312
-0.11569905 -1.6796477 12.717093
-16.668472 23.106312 -341.24985
1.6861385 0.45903707 8.3002644
1.1921599 -0.057676423 8.4599237
0.11628476 -1.3496308 8.819458
-1.8898884 0.1544283 -26.763123
0.67717689 0.046687011 8.8434706
0.39287877 0.62426221 8.9357138
1.402645 -0.38032261 7.0039282
2.4081686 1.6998091 14.359285
0.22824842 1.1878515 9.2078733
2.5913019 -0.71601802 13.301868
-0.015759705 -0.62284541 -9.4767942
34.994072 -37.774422 637.27075
0.91017711 -0.20441325 8.6266479
0.43440923 -0.21573898 2.3195148
0.59718072 -2.2038333 8.4132195
-1.5012861 1.2276552 9.7643452
0.27609524 -0.65352023 2.5708005
3.1638656 -0.61690837 -39.853897
1.3486468 0.086619034 8.7742043
1.5632666 0.30389726 8.9451656
-0.18863778 -0.91476303 9.1386127
1.6080354 -1.5212617 7.8385925
0.35897291 0.29498813 8.9855042
0.25259849 0.17963614 2.6262431
0.30048755 -0.23368612 5.2142925
-0.075990632 -0.70488477 -10.205564
-16.347527 23.084332 -302.38559
-0.80754775 -0.96285713 9.2961769
0.501158 -0.032095376 -15.926627
1.0996606 -0.12308546 8.0316811
0.38174972 -0.079794928 -4.6071224
-0.34953433 -0.28020853 9.2934237
1.4633144 -1.3620356 8.0319605
-0.79313582 0.076479241 9.5224419
0.41744253 -0.1987419 -3.4371924
1.6511428 0.11506204 8.1932678
-1.0729176 0.73683918 -22.020029
-0.5007385 -1.9442023 9.0712757
-1.4860641 -1.3914387 12.367332
3.6539743 -2.9428453 32.756672
1.7210506 -0.015424727 7.7825794
0.90295309 1.8918878 -12.0153
0.3121767 1.4198538 -5.8395786
-0.57722992 -2.4821677 9.0340586
-0.59333378 -0.40744308 9.3836603
1.2297899 -0.015277709 8.4561882
1.9336356 1.7378339 -22.026415
-0.99416757 -1.4422956 9.3341589
-4.9096088 7.4447255 -53.491177
1.4559247 -0.45607108 8.2402887
0.36512023 0.65052068 -3.7436001
-0.052419219 0.54212153 -8.7255259
-1.0801322 -0.077471465 9.5659266
-0.21831901 -2.0461764 8.8745689
0.99147707 0.43496525 5.7570291
1.093675 -0.48903912 -14.396989
0.25269431 -1.0302389 8.8132133
0.029577678 0.13686842 9.1539268
0.6555118 -0.33465564 8.7450914
1.5134697 0.60825127 8.4549026
1.3388932 -0.65134805 8.255064
-0.13116579 0.85503799 9.3756866
0.57748741 -0.2150389 5.2483912
1.6910448 -1.4450958 7.8354654
-0.51335013 -2.210202 9.0764971
0.9943251 -0.26350817 8.5690813
0.39879778 0.095866375 -3.3016043
-0.086254619 -1.5734264 8.9734287
0.46917474 -0.30899727 7.0809646
1.2078015 -0.79348391 6.9146104
0.17096469 0.48875785 9.1416359
1.1021831 -0.3822636 8.4611225
0.33158576 -0.055207316 1.5453199
0.21892384 -1.2168864 8.8209934
0.95264578 -0.97409374 8.4387283
1.007153 0.40052176 8.6850853
1.6192536 -0.21169773 8.1963663
1.517761 0.32257992 8.3583975
7.4767289 7.3959107 79.276443
1.7225382 1.0932055 8.3524094
0.57225579 -0.34653023 4.7765541
0.69529158 -0.33647305 -8.9587126
1.2427534 -0.70934981 8.3277779
-1.146808 0.14821774 9.6469078
0.36239123 0.42965567 -3.868196
-0.7251333 -1.6519686 9.1743145
0.2002241 -0.53903919 7.8627744
1.4162409 -1.9281772 7.8437295
1.7248607 0.37453169 8.2395859
1.0752804 0.39568937 8.5769844
0.021577297 0.70168126 -11.16302
1.8182664 0.27655435 8.5923147
1.63515 -1.6272817 10.858866
1.1276815 -2.2279174 7.9703507
1.2122911 -1.1563228 8.2282934
1.421229 -1.8527474 7.8999662
1.1062529 0.29063785 8.5529709
0.22270221 -0.42072174 8.9616861
1.7225382 1.0932055 8.3524094
0.82282692 -1.2272831 8.4451504
0.7745207 -0.29574156 7.3421955
-0.39881214 0.40306145 10.331504
1.0386264 0.11740235 -13.9925
-0.73821431 1.0713353 9.6146793
0.42719561 -1.8419055 8.5196524
-0.55443269 -1.2526166 9.2007885
0.16167557 -2.0326235 8.6162224
0.74515206 -0.67664403 8.6337137
0.45801193 0.5774737 9.0980158
0.75253797 0.65546834 8.7985821
0.25733605 -0.34995997 14.171293
-10.310255 -24.683199 363.90036
-0.40099654 -0.33332747 9.270401
-0.13747433 0.80583823 9.3305464
1.1827393 -0.45646009 -14.000127
0.74515206 -0.67664403 8.6337137
-0.17135896 0.87141311 9.3359337
-0.14704952 -0.027028289 9.1156139
0.62391865 0.056283593 3.342303
-0.59039199 0.37210816 9.4497719
0.80510914 -0.80370247 8.516223
-0.49468583 -2.0125976 9.045208
1.1578456 -1.8642118 9.435483
0.94202089 -0.3256402 4.7892828
0.13089007 -0.23025957 5.0496898
0.34949303 0.22429468 1.9574541
14.914204 3.7769196 170.30338
0.32192758 0.34591764 8.9954271
0.71564925 -0.69988561 -9.0735521
0.81752545 -0.72815663 7.3001027
-0.51738054 -2.112119 9.0215378
-1.0202172 -0.78446329 9.4389
0.49043995 -1.6207296 8.5253124
0.7745207 -0.29574156 7.3421955
-0.32057202 0.61011028 9.3204718
1.9619304 1.3928638 15.201697
1.797767 -0.2404867 3.5866771
0.95421118 -1.6893479 8.2618589
1.5535882 -0.85710162 8.0804424
1.3303814 -1.2494904 8.1563005
1.4558262 -0.71508956 8.1826162
1.1904459 1.3524526 8.8477507
8.1138439 16.725473 187.42896
-1.0011425 -0.051477697 9.5823755
0.55240583 0.19727467 6.1945114
0.501158 -0.032095376 -15.926627
0.47804475 -0.27210394 3.3382103
1.928669 -0.67655385 12.889395
-1.6202615 -7.1295691 36.980293
1.4982417 -0.018411819 3.5336232
0.99355614 -1.5951601 8.2676411
1.4389058 0.68154263 8.468277
-0.10910585 -1.5806717 8.8967686
1.2884461 -0.54510117 8.3345413
0.76742435 -1.3627696 8.4583874
0.22713955 -0.13468646 4.3913522
0.8933416 -1.1379534 8.4224501
0.40961117 0.54537243 -4.8411913
0.046107739 -1.5408682 8.8039341
0.51667964 -0.43360537 7.8304973
-0.39881214 0.40306145 10.331504
5.5714264 -5.7471356 102.2904
-0.63516557 -1.7456943 9.102643
3.1580687 -0.29854581 -36.79398
-0.14704952 -0.027028289 9.1156139
0.241226 0.44469535 -6.6721864
0.091683239 0.38330927 8.0766325
0.36451951 -0.34303829 1.6983885
-0.58832014 0.76535606 9.5071917
0.62612695 0.079327255 8.8687353
1.1019133 -0.067685336 8.0048046
0.59254718 -0.03257953 3.2700331
0.12465265 -2.1542006 8.6089382
0.17709985 -2.2950585 8.5879755
1.2133801 0.93652266 8.6769409
0.86548203 1.6903338 -19.100639
0.19815367 1.2043161 -9.61057
1.2238743 -1.4108605 8.1839142
0.39957511 -0.42587891 2.7930856
0.87909597 -1.4480762 11.588686
-1.1571922 0.76632512 9.7119513
-0.651784 -2.2638745 9.085948
0.36451951 -0.34303829 1.6983885
-2.1776791 -1.6063782 29.764944
1.0041211 0.529764 19.70466
-2.4979739 6.9711409 -50.265663
-0.13697837 -1.6276128 8.9196606
-1.1093585 -0.8601684 -20.420713
0.20833281 0.017236458 3.9498684
0.47804475 -0.27210394 3.3382103
0.47128895 0.28963089 -5.6238961
0.15279053 -0.37067848 8.6591272
0.31362635 -0.25431696 2.5316565
1.5325382 0.23550493 8.4108315
-0.00096521719 0.50430906 10.717062
1.5658683 -0.013937715 3.5617716
0.41290009 1.1659651 -13.956255
0.019326212 0.33792049 -14.268684
0.99134898 0.44012451 5.826077
0.80683124 -0.70768464 4.7284398
-0.23787823 -0.14177185 9.2457294
0.59018832 -0.3049435 3.3969064
0.56571919 -1.542551 8.5789967
-0.32824266 -1.0872914 9.0849771
1.413313 -1.399977 10.277706
0.18771222 0.54538232 -4.3598027
0.41615614 -0.19683772 -3.4275222
-0.4094207 -1.5883783 9.0868435
0.12085102 0.51615876 9.1955099
0.50156784 -0.56784475 4.0255747
0.36495113 -0.48522827 -9.3151026
0.15604152 -0.62811005 5.036572
0.66321439 -0.28836736 5.158618
0.52720851 -0.65837067 6.7857618
1.6640939 -0.96620452 7.9814181
0.062382668 -1.3923501 8.802928
0.80057698 -2.0866101 8.2537365
1.5860556 1.1882874 8.4935799
0.43256596 -0.25937641 2.5188024
-2.1776791 -1.6063782 29.764944
0.27912495 -0.21283214 3.381005
-1.1093585 -0.8601684 -20.420713
-0.54449993 -1.7298495 9.0642538
1.6070087 -0.21394613 7.763515
-0.23220755 -2.6220613 -112.90617
1.7283683 1.1942594 8.404254
0.45984012 0.1815386 -6.25248
0.30320853 -1.8547225 8.6060753
0.80944133 0.028833801 5.6542568
0.77109611 -1.4385868 8.4239092
-0.15176576 -0.80869633 9.101059
0.084825709 -0.38414076 3.6199737
0.31075448 0.68968087 -6.9674077
-0.047242157 -0.042585637 -9.3685751
0.25543404 0.378833 5.7845912
1.2576308 -1.8585821 8.0257378
0.98110974 -0.29188895 5.1820478
0.40515003 -0.39412159 2.6489367
1.7095137 1.1411834 8.4275246
0.23240562 -1.9539722 8.6489115
1.1296879 0.30110082 8.6649027
-0.089820258 -0.76927209 6.1558647
0.52461404 -0.42200446 2.8347323
0.75958943 0.2953169 5.5653706
-0.32824266 -1.0872914 9.0849771
0.59588546 0.77320886 -9.4175482
0.61932224 -1.4100583 8.5346346
1.6321763 -0.20947538 3.5532775
-0.13747433 0.80583823 9.3305464
0.5015254 -0.12000397 8.8613176
0.38025081 -1.8373066 8.5831556
0.30792126 1.3229387 9.1396523
-0.32980481 -1.9927372 8.9304247
-0.46278363 -0.386859 9.3339138
-1.8651378 2.1291113 -30.47522
0.72732663 0.19592415 7.1939926
1.3034499 -1.9095498 7.9777184
0.59737581 -1.4992349 8.5567999
0.56585371 0.013529729 5.6381655
1.8182664 0.27655435 8.5923147
-1.6287116 -1.5296311 21.586731
0.09241876 -0.90730596 8.9506693
-2.4979739 6.9711409 -50.265663
-0.018790985 -0.64105839 -10.22588
0.0034947849 -1.8502504 8.7478771
-0.0013834649 1.371326 -8.3418627
1.590315 -0.18527992 8.2585688
0.37014183 -0.37953475 -9.2798862
3.7819633 10.232798 -116.42599
-0.86670512 -0.025009967 10.696251
2.1207693 -0.12215678 14.328485
1.2645831 -1.1910264 8.2136974
-0.54962516 -1.7066323 20.032148
0.51503026 -0.056752566 2.3940399
-0.47536603 -1.8360881 9.0113754
1.6066576 -2.1783497 7.6681437
0.66186637 0.15564324 5.7744431
1.8244433 -1.5287789 -43.700138
-0.9318946 -0.83648366 9.4087019
0.36735952 -0.099841155 1.7394112
1.6420227 0.4323985 8.2816048
0.39439964 -0.095194317 1.7619786
1.6321763 -0.20947538 3.5532775
0.45880347 0.1644793 2.745445
0.24411048 1.5997777 -10.842666
2.4971962 -0.99700356 -56.144341
0.2194887 -0.061436784 -6.9249539
-0.44833192 2.7801702 -23.810095
-0.73821431 1.0713353 9.6146793
0.24719727 0.20508187 -1.2613198
0.38177043 -0.14842026 -4.8209558
1.3388932 -0.65134805 8.255064
-0.056647405 0.17812669 -9.2424126
2.4262087 0.23413289 -31.047335
-0.86465269 -0.57113194 8.1708364
-0.52710879 -0.48930281 9.3322344
-0.26477173 2.3544855 -17.712154
1.0458233 -2.2268362 7.9839354
1.5087005 -0.054624725 3.5322938
0.21727754 0.090515286 2.5829079
2.4971962 -0.99700356 -56.144341
0.3252959 -0.49037749 3.6345878
1.591223 0.51460457 8.3439274
0.26635 -0.17654328 4.0855913
1.4292437 -7.9450569 50.288078
1.5311071 -0.21487072 3.0556877
1.6562208 1.2762413 8.4864635
-1.158314 0.14594646 9.7110348
0.10825992 -2.085551 8.6509514
0.24411048 1.5997777 -10.842666
0.91392511 1.7016661 8.9539089
1.3486468 0.086619034 8.7742043
0.32255477 -0.51058143 2.6601708
1.3597881 -1.8910478 7.9395967
1.7068036 -1.989539 7.6262598
1.1381923 -0.35664347 6.4717689
0.58188814 -0.50100487 4.998198
1.2555372 0.016954979 8.4683638
0.43626979 -0.34469295 8.6628132
-0.089831963 0.67483336 12.850289
0.26528159 0.13525246 -1.8061132
0.50602722 -0.30988225 3.8864913
0.21059324 -1.0523314 4.6956773
0.32536614 -0.33843639 8.9323626
-0.91296571 -0.062999777 9.5195093
1.1862026 -0.57078677 -14.228009
1.4982417 -0.018411819 3.5336232
0.50589532 -0.24774474 -6.0518546
-0.42282405 -1.233138 9.252409
0.26635 -0.17654328 4.0855913
0.96342003 -0.21438949 8.5375576
0.63913256 0.0076742396 1.3799179
-2.4979739 6.9711409 -50.265663
1.0250603 -0.97602868 8.3645468
0.069482788 -0.16652592 3.7983
1.6616687 -0.67798555 7.3534017
3.294837 -0.38943422 6.5139089
1.6376046 -0.29153705 8.1519232
0.33653104 -0.40451559 2.7231033
0.51503026 -0.056752566 2.3940399
-1.1431202 0.62276202 9.6830521
0.33822858 -0.63860255 2.9870465
1.6558527 -0.37532562 3.5572066
-0.52710879 -0.48930281 9.3322344
-1.0230324 -0.24874236 9.0410757
0.81700379 -0.17276748 13.811478
0.38284728 -0.47693241 2.3159397
-0.87451804 -2.5346744 9.2812767
0.76199538 -0.76579064 8.5337286
2.5681264 -6.7354484 -162.02985
-0.16824248 -0.61883473 4.0511003
1.5658518 -0.96983278 8.0512447
-0.9318946 -0.83648366 9.4087019
0.32242575 0.25480169 -4.7834873
0.33403823 0.38359547 -6.7450037
0.44838941 -1.6801831 8.5694714
-0.075211413 -2.318805 8.7655296
0.39246014 0.072426751 -3.9132645
0.29377016 0.018826267 6.619421
-0.16488926 0.16181888 15.411897
0.8581838 -0.55014259 6.2379799
0.62202948 0.025615156 3.3596277
-9.825325 4.4880857 -21.330999
-0.33151954 -0.58838803 9.2325859
0.13818057 1.3211337 -11.366877
0.30792126 1.3229387 9.1396523
1.0408666 0.42869452 8.6298771
-0.38662639 -1.240213 9.1293659
0.65929973 -0.68252361 -8.3041964
0.049288683 -0.1319252 4.1580768
-0.61277175 -1.0418862 6.7972164
0.99539256 5.4241796 -69.395302
2.2660115 -4.519351 55.458141
0.98262805 0.15754093 5.3797097
-1.5953101 6.4230108 -53.579845
0.37725201 -0.66916913 2.6214659
0.50251621 -0.71604913 4.0196867
0.3933453 -0.28260607 -4.6589103
1.2413328 -0.5156737 8.387146
-1.4313363 -1.4816407 18.391155
-0.47863775 -0.80389762 7.4498539
0.42252627 1.3371333 8.9898062
1.1173344 -1.7015355 8.1105385
-0.055234779 -0.20778637 -10.350698
0.26172265 0.94532537 -8.7537708
2.2660115 -4.519351 55.458141
-0.99686915 2.8777308 -26.160994
0.91879791 -2.3836741 14.911715
0.95264578 -0.97409374 8.4387283
-0.069801964 -0.65834773 7.5046434
-0.31711623 -0.70267683 7.7418756
1.5393978 -0.80100673 3.2640884
-0.10216896 -0.77837658 6.2666683
-1.1948595 0.99995589 9.653327
1.4184709 0.81821382 15.920362
-0.93993402 -0.025213854 9.5782804
1.7229431 -1.4075574 7.8326969
0.3501735 -0.55738479 3.2233336
4.6426783 -4.6924982 -117.18183
0.28773391 0.38608903 -3.8773293
2.0199299 1.9515927 -24.741137
0.026680484 -0.14379843 5.8168802
0.29460013 0.45523486 -5.9966688
-0.85415965 -1.73045 9.2494946
1.8123455 -0.33872071 3.5909729
-0.71031708 -2.4304106 9.1250496
1.5237426 -0.4102917 8.8815241
-0.66873151 -2.336396 9.1148129
-22.293108 3.7804005 -45.165573
0.44299808 -0.94486797 6.9626369
0.78379774 -2.004962 8.2829227
1.5738221 -2.0758159 7.7127552
-1.0303115 -0.37556055 9.3820839
0.95541579 -2.2917285 8.1010408
0.00065641507 2.5236957 -24.673487
-0.6415289 -0.025668768 8.5721378
-0.39490226 -0.30271849 -1.8613048
-0.91779315 -1.7430949 9.2743139
0.25390211 -0.24617749 1.724857
0.41409194 0.23290284 -3.2955759
-2.4979739 6.9711409 -50.265663
0.012793683 -2.3335359 8.8130455
0.30259171 -0.029260855 2.7311852
-0.99131304 -1.988009 -22.901617
1.5803391 -1.5207473 7.881022
0.34089229 -0.42739478 2.4312601
1.6558527 -0.37532562 3.5572066
0.67294955 -0.036918893 8.7890692
1.2237661 -0.56717366 -25.253315
1.5803391 -1.5207473 7.881022
0.39163625 0.65166736 -6.7669368
1.9381226 1.213027 32.189968
0.96833563 -0.66680223 6.3324351
-0.24565698 -0.9176923 6.8427839
0.40724722 -0.10750255 -1.4454446
0.85681725 0.099776722 6.1073718
0.35419196 0.11202905 1.92035
98.153519 7.127398 1664.6133
0.99472219 0.18907906 11.870998
-0.62490648 2.6555822 -13.221405
1.6235414 -1.4677529 7.8852439
-0.73310208 -0.31509355 -2.2432933
1.6077842 -0.42662159 3.548162
0.27657807 -0.42756721 2.7723851
0.33962512 -0.28881282 2.2862296
4.5020919 -3.1333771 67.972893
1.0823004 1.9803195 9.0756302
0.29808667 0.039660882 -1.9582642
1.2078015 -0.79348391 6.9146104
0.6328277 0.76109976 8.9171333
1.1228385 0.36603436 -13.599522
0.27657807 -0.42756721 2.7723851
0.3100197 0.2146751 -9.4673052
1.1067072 -1.557747 8.1886034
1.6616687 -0.67798555 7.3534017
0.16735741 -1.497255 28.663481
-1.5003914 -0.0088188276 -24.735891
1.6537479 -0.21919799 3.5564291
0.16735741 -1.497255 28.663481
0.18617846 0.54628569 -4.3539891
-0.85415965 -1.73045 9.2494946
1.7195872 -0.099836357 3.5748217
0.48570964 -0.9524222 4.4282031
0.43583179 -0.068974368 2.3404956
0.48347816 0.49495515 -5.0638347
0.45930666 -1.9030542 13.320631
0.19541167 -0.2432016 8.366785
-1.7564983 1.0228009 -4.3451338
2.1488264 1.4242878 8.4520664
0.51739156 0.39611161 -4.4575171
-0.39146957 -0.30955184 -1.8530457
0.03152404 0.16204731 3.9332306
2.0503521 -0.45763111 15.137401
0.66284508 -2.0276535 8.3934898
0.12084609 -0.19723319 4.5704288
1.7909697 -0.024628781 3.6164041
0.34032798 -1.7570608 8.5975428
0.65004778 -0.18522437 3.3400383
0.43438482 0.50417233 -8.9787102
1.007153 0.40052176 8.6850853
0.64018446 -0.17267278 4.4499235
1.2929149 -1.8230376 7.9749007
-0.89178497 -1.6675574 9.2552662
0.1288258 -0.36865091 5.7630033
-0.74873161 -2.3261831 9.1275616
-0.78562033 -1.6736917 9.2432985
1.5393978 -0.80100673 3.2640884
-0.2739718 -2.0122859 8.9242487
0.87613815 1.1514152 8.8516035
0.12795128 -2.8454645 15.913079
2.8827128 -0.074190222 -39.559502
1.1016537 -1.6661777 8.1693554
0.4564065 -1.472333 12.849997
1.0813671 0.26784587 12.798708
0.23422383 -0.27334091 4.3128834
-0.56484765 -0.45262656 -21.705725
0.11837298 1.405434 -21.954174
0.68819082 97.079033 -595.2121
0.7149238 1.3216922 8.8168631
1.742291 -0.40384051 7.9472089
2.6892381 -0.27387059 26.440077
0.10764931 1.2851311 9.2704992
0.31640995 -0.84658825 4.6600366
-0.60254341 -0.57038009 9.3084431
0.95860803 -0.55713743 5.2238898
2.1568716 -3.9718096 47.168312
0.34929028 0.003824234 2.4236135
1.6688442 1.9189736 6.9546494
-0.19456585 0.84176803 9.4098492
-0.72882128 -0.33665612 -2.2301474
-0.011183834 -0.70099485 8.0250835
0.69055122 -1.4464698 8.4994926
-0.071373023 -3.7069643 20.122801
0.46298179 0.0050944448 2.0189476
1.7000079 0.029501339 7.9629941
0.83466244 0.43498769 5.9041696
1.5486667 -2.2053301 7.7221942
1.637063 -2.1303363 7.5984735
0.5793103 0.14729008 3.1057734
1.3197267 0.10813732 8.3894358
1.5895691 -0.82603502 8.051671
1.6017652 -2.0190237 7.6763659
-0.61551869 0.32491654 9.4542608
-3.9924352 0.96701366 -10.388469
0.87059301 -0.56449521 5.1858535
1.0187496 0.50618678 8.680728
-0.71031708 -2.4304106 9.1250496
0.90641695 -0.54755449 7.0307121
1.3010051 -1.8573952 7.9576864
0.13677102 -0.34688652 2.3431203
5.1792603 -9.3229132 59.993649
0.68613517 1.2452852 -11.931573
0.59862888 -0.35880056 -2.0384033
-0.71207118 -1.5620755 9.1024218
0.27405185 -0.14086144 1.5341871
-0.14704952 -0.027028289 9.1156139
-0.18622504 0.28724089 -1.9439684
0.48778504 -0.10937885 -1.2091146
1.6306131 -0.035059158 3.5605273
1.0277712 -2.1926787 8.0194674
22.853651 13.397795 256.89987
1.0390893 1.1113963 8.7376595
0.49585247 0.35348028 -5.6115947
-0.0084371353 -1.7532631 -19.597538
19.779388 -8.2962313 39.89043
4.5266066 -2.7680295 65.042465
0.35916245 1.121627 -11.461246
2.8456969 -2.8665781 18.648211
1.0965538 0.046499941 9.0343761
1.4160427 -0.70138544 6.5488524
1.3010051 -1.8573952 7.9576864
1.6746129 0.32426608 3.6124263
1.6873101 -2.1031408 7.5743613
-0.81939435 -6.5880938 42.076702
0.26273951 -0.25725418 2.3764732
0.3908672 0.09449897 -1.349189
-0.041985381 -1.5646271 8.802536
-1.7305571 1.9452338 9.641717
1.7017528 -0.45673907 3.4205265
3.8824568 7.8314371 -187.51819
1.3011211 0.25757378 -18.356083
2.147624 -1.3510112 7.6462684
0.4026086 -2.4147758 8.3693943
1.7195872 -0.099836357 3.5748217
0.39243284 -0.059315763 2.2140255
-0.86215538 -1.6147481 9.2855034
1.9951471 -3.8937721 51.341545
0.31631464 0.0045843753 -1.4805918
0.21739437 1.2909137 9.2918568
0.74774551 -16.234488 71.092438
0.23527847 -0.48226443 2.7095003
0.47819033 0.1155072 -0.89020276
-1.0137999 0.31320065 9.578536
0.67403114 0.78534359 8.8902407
1.888526 0.39124271 3.7832284
0.93245697 -0.28114158 7.7083807
1.3010051 -1.8573952 7.9576864
-0.39958969 -2.5940571 8.8670969
1.7502092 -0.40925947 3.5785606
-0.041985381 -1.5646271 8.802536
1.0279402 -1.6174648 8.26789
1.4844693 -0.74223167 3.2837985
0.46586499 -0.087237567 2.5112615
1.5486667 -2.2053301 7.7221942
-0.91882831 2.3589182 -15.014132
1.048353 -0.20765603 4.6057005
-1.650099 1.0097144 9.8039246
1.5787436 -1.8200805 9.345499
0.70395142 -2.0325949 8.3163939
13.227687 -30.502304 351.42215
-14.504255 4.1653638 -50.018764
5.4520121 -0.036333226 10.819053
-1.0846072 -2.1533706 13.98825
0.33488137 0.98720765 -6.0888295
0.41079608 0.033073157 -3.3922753
-0.090869099 0.44870639 -1.8959432
0.51915228 0.082198143 -1.6293182
1.7272738 0.026925473 3.5940855
-0.18622504 0.28724089 -1.9439684
1.6703343 0.35354504 3.5515518
0.13062617 0.70605689 -8.7154312
0.51809424 0.083394475 -1.6317869
0.53212053 -0.8219294 4.7875767
0.4145354 -0.23778419 3.2742016
0.43601802 0.18272269 2.9736569
0.64384001 -0.32612303 4.3476052
0.39852291 0.078840591 -3.5428212
0.38022459 0.49307352 -5.0844092
1.9933337 -1.1887004 12.704477
0.60261065 -0.37825483 -2.1178555
0.71378946 0.48002705 5.0731316
1.7066439 0.40415135 3.6061563
0.45824966 -0.23775549 2.3634665
1.6084234 2.4357607 7.1653714
2.6702554 -0.80514127 -23.985182
-0.50246662 1.2526252 9.5574083
0.28263998 0.087089762 2.822367
0.34032798 -1.7570608 8.5975428
0.32532009 0.0035643815 -1.4630213
-0.73931885 -2.4084828 9.2159119
4.5266066 -2.7680295 65.042465
-0.80665165 -1.5727469 9.2443752
1.1293789 -0.79412371 5.8606505
0.1763839 -0.33846337 1.9794068
1.6321763 -0.20947538 3.5532775
0.38207099 -0.15476827 1.6978639
-1.219147 0.15909524 -3.4347844
5.1792603 -9.3229132 59.993649
1.0220176 -2.2682672 7.995893
1.6441038 -0.93156981 3.3121569
-2.7313142 -0.27487418 -8.2510843
0.464946 0.079925746 -1.9248154
0.39996654 -0.20338692 -2.4190838
0.65748256 -0.65371221 8.6772356
-0.013049235 0.32848129 -2.4068954
0.18865494 -0.10944816 5.8118176
0.25633234 0.23929939 -1.8202842
1.6640732 1.9753038 -19.170515
0.57551879 -0.3814505 1.1570437
0.40803042 -0.56088567 3.5739377
-0.66873151 -2.336396 9.1148129
0.28050956 0.75905031 -4.2778163
0.18485652 0.37614286 -10.065181
0.42563468 0.27633542 2.851979
1.6192536 -0.21169773 8.1963663
0.65177912 -0.49857628 -5.3488398
2.6224074 -0.056893233 5.1718898
-1.3224188 1.486655 9.5189934
0.47576705 0.21185142 3.8873253
1.1507063 0.86117464 2.2330792
0.55188471 -0.2900157 -5.0265808
-1.3794589 -0.18449108 -3.2409713
-0.20325604 -0.16596815 -1.7347866
-0.20325604 -0.16596815 -1.7347866
0.27127168 -0.25747359 1.7291481
0.41600451 -0.0010795093 -1.936308
0.16826905 0.014273092 -1.4736046
-0.78328907 3.0129068 -12.556916
1.6042376 -0.80630147 3.9115891
0.30394271 -0.13445739 -1.7842283
0.34032798 -1.7570608 8.5975428
1.9186432 0.01996938 6.1525311
2.1494849 1.5304706 8.5129786
1.5639819 -1.4412493 7.1574163
1.002583 -1.6437732 8.16082
0.53981626 -0.30296952 1.4243963
1.1887583 -3.3781714 21.566147
1.2940576 1.2145987 8.6180267
0.38598251 0.34011564 -3.6070545
0.6892494 -0.44806683 -1.3851132
0.8916266 2.9190464 11.236626
-0.48400903 -2.1917043 10.157807
-0.060185928 -1.0051665 3.9462302
62.361824 7.6309915 150.8726
0.29122737 0.53391284 -3.8293052
1.5738221 -2.0758159 7.7127552
1.6235414 -1.4677529 7.8852439
0.71419364 0.45503742 -3.7638841
-0.18379501 0.28594705 -1.9407448
-0.64257604 -0.71069068 7.4683523
-15.672831 4.5528212 -53.829979
-0.013266883 0.25739855 -1.6975628
1.8554285 -0.029917333 4.2231746
0.58122218 -0.1875443 -1.6521652
0.33963934 -0.062888138 -1.1311052
0.68101078 0.40178692 2.6856766
3.7450583 -1.057893 7.2509394
1.5701091 -0.034462523 3.5803952
1.9999696 -0.30226961 10.488183
-0.79935104 -1.7121278 9.1780748
1.2855191 0.79895729 8.5341568
0.41696262 -0.10501312 -1.4228417
0.59085274 -0.34336069 -2.0691016
0.6892494 -0.44806683 -1.3851132
1.4966266 0.793477 7.364234
2.7508168 -0.34092289 5.4157434
0.24232958 0.18409662 -1.2148911
0.18282141 -0.083871447 -1.3392999
0.49202302 0.1662052 -1.6800606
0.58202374 -0.22293863 -1.9310908
0.35333329 -0.82593518 3.8799162
10.609575 2.0803161 21.190889
0.31050247 0.19612844 -1.1762583
0.40273616 0.12206893 -6.3685684
0.37415925 -0.069280297 -1.0793154
26.350842 -11.636825 53.953846
0.13018668 0.699 -14.260797
0.47302419 0.076358587 3.6167388
1.7133622 -0.060984667 3.5973036
1.840578 1.4483929 8.4882212
0.15986197 0.095371351 10.150135
-0.42000026 -2.0164943 16.029713
0.41259357 0.13100629 -2.9928098
0.44140312 -0.046499789 -1.0296139
0.43971336 -0.047338177 -1.2956835
0.57800871 0.51709247 -4.5374513
-1.3526926 2.5637109 -11.60023
-17.567345 -7.4575024 -49.393639
0.47787577 0.11278661 -1.6753795
0.48892123 0.15127043 -1.6773424
0.43155137 -1.7476766 8.5491562
2.2365096 -0.98853868 5.784348
0.26518306 -0.43020788 2.8161423
-1.0583428 0.29833227 -2.9082353
0.60472023 -0.19280934 1.6285579
0.49276823 0.17248115 -1.6828384
-1.6897408 1.5682869 9.8576517
0.25699151 0.40542638 -2.6295826
0.98272973 -1.6239357 8.2640829
0.40301001 -0.42057896 2.8116627
0.53443253 -0.28806767 3.5500741
1.3946418 -1.2021618 8.0850544
2.4758615 -0.926709 13.732502
1.0202326 1.0398937 15.253822
-7.9980145 -2.5062277 -25.561039
0.46367002 -0.38978249 2.4243078
0.27714071 0.91415685 4.2395029
0.33639231 0.047987614 -2.0469129
0.31104118 0.19615962 -1.1755817
0.36131454 -0.065088764 -1.0832561
0.35906848 0.0027907379 -1.3684433
0.45725793 -0.073109955 -1.2060779
-0.91200727 -1.0914204 -3.7496676
0.49202302 0.1662052 -1.6800606
-1.1447059 -0.32698441 20.157097
0.47787577 0.11278661 -1.6753795
1.2855191 0.79895729 8.5341568
0.48674652 -0.013951887 -1.1292641
0.24452001 0.16483572 2.3027422
2.2886579 -0.050331373 7.0946078
0.51755905 -1.1772491 4.4847722
0.29281685 0.17266294 -1.5742027
0.72964722 -0.30616331 2.1786926
0.33807212 -0.14039679 1.318948
0.46682936 -0.18088645 -1.3836884
1.4368608 -0.51888263 -3.9181201
-1.5742023 0.080476306 -5.811203
0.48892123 0.15127043 -1.6773424
0.56982559 0.096825436 1.5415615
-1.8007532 0.12843338 -6.1844511
0.333606 -0.074599668 -1.1239347
3.7677984 -1.065767 7.3102021
0.37623996 -0.062080573 -1.06789
7.1936197 23.255257 -176.31296
