# .PCD v0.7 - Point Cloud Data file format
VERSION 0.7
FIELDS x y z rgb
SIZE 4 4 4 4
TYPE F F F U
COUNT 1 1 1 1
WIDTH 1106
HEIGHT 1
VIEWPOINT 0 0 0 1 0 0 0
POINTS 1106
DATA ascii
-1.1405783 0.73129976 3.0927577 4287862925
-1.1315554 0.73062068 3.096513 4288778116
-1.1211535 0.73128885 3.0945251 4289757302
-1.1095314 0.73181278 3.0930626 4289563773
-1.1011343 0.73129058 3.0962005 4288905079
-1.0895789 0.73205441 3.0937378 4288379256
-1.0790344 0.73218364 3.0940075 4288057484
-1.0684855 0.73240948 3.0938716 4288325282
-1.0571139 0.73344797 3.0902634 4288062106
-1.0467856 0.73401803 3.0886838 4287729291
-1.0355266 0.7347371 3.0864298 4288190863
-1.0254411 0.73453259 3.0881379 4289175959
-1.0149912 0.73521733 3.0860634 4289763478
-1.0033863 0.73566866 3.0849352 4289698970
-0.99468207 0.73480898 3.0894754 4288720033
-0.98304588 0.73592812 3.085515 4288328617
-0.97229999 0.73612279 3.0855117 4288197541
-0.96203148 0.73677534 3.0835729 4289436046
-0.95152247 0.73709995 3.0830221 4289106563
-0.94001383 0.73788917 3.0804722 4288321932
-0.93003768 0.73762047 3.0824614 4287537301
-0.91834164 0.73845571 3.0797164 4287991939
-0.90817976 0.73951602 3.0760298 4289363576
-0.89741343 0.74011713 3.0742948 4287986802
-0.8868199 0.74009973 3.0752039 4287986036
-0.8765192 0.74126804 3.0710442 4288904567
-0.86560482 0.74093664 3.0732965 4288842879
-0.85409778 0.74139994 3.0721533 4289108368
-0.84379435 0.74129939 3.0734212 4289301628
-0.83215797 0.74265307 3.0684712 4288518281
-0.82199508 0.74273181 3.06897 4288458400
-0.81182021 0.74216866 3.0722167 4288912785
-0.80067432 0.74279821 3.0703671 4289368453
-0.78933477 0.74366546 3.0675035 4289564287
-0.77786297 0.74431413 3.0655823 4289827719
-0.76769578 0.74529076 3.0622263 4290221963
-0.75770879 0.74536157 3.0627465 4290220933
-0.74663043 0.74581546 3.0616534 4289958021
-0.73613477 0.74634999 3.0601962 4290416257
-0.72539204 0.74650717 3.0603654 4290744190
-0.71428591 0.74706924 3.0588119 4290354834
-0.70416534 0.74727452 3.0587497 4289967013
-0.69345564 0.74705809 3.0605185 4290422425
-0.68225998 0.74756205 3.0592201 4289959049
-0.67094082 0.74822217 3.0572603 4290024324
-0.66107279 0.74874932 3.0557971 4289633935
-0.64981353 0.74902529 3.0554831 4289833370
-0.6387887 0.74953443 3.054158 4289895824
-0.62767863 0.74940723 3.0555661 4290155915
-0.61683309 0.75005686 3.0536301 4290155914
-0.6061393 0.75014263 3.0540991 4289958276
-0.59490025 0.75059116 3.053051 4289895052
-0.58393806 0.75090373 3.052567 4289895566
-0.57317036 0.7516275 3.0503101 4289762182
-0.56204569 0.75200838 3.049547 4289830031
-0.55083197 0.75213808 3.049865 4289960847
-0.53965551 0.75255728 3.0489442 4289892740
-0.52836454 0.75245804 3.0502474 4289889399
-0.51725519 0.75226593 3.0519307 4289562496
-0.50972378 0.75477934 3.041759 4289170302
-0.49757969 0.7544806 3.0439854 4289310366
-0.48573661 0.75461131 3.0443566 4289310624
-0.47686189 0.7564193 3.0373085 4288781970
-0.46595421 0.75637674 3.0383267 4288519309
-0.45542178 0.75698388 3.0365446 4288717980
-0.44334045 0.75662112 3.0390399 4288913565
-0.43247512 0.75736266 3.0367227 4288917412
-0.42085585 0.75725836 3.0380735 4289114788
-0.41011143 0.75709593 3.0395713 4288720795
-0.3985751 0.75752723 3.0386438 4288851612
-0.38834867 0.75842178 3.035609 4288916636
-0.37668711 0.75856107 3.0359333 4288981916
-0.36570939 0.75884968 3.0355453 4288916639
-0.35407275 0.75936407 3.0342872 4288985774
-0.34271267 0.75934988 3.0352216 4289243297
-0.33181202 0.75997567 3.0334048 4289048227
-0.3225731 0.76058918 3.0314226 4288720286
-0.31084886 0.7608254 3.0313485 4288851871
-0.29876432 0.76086861 3.0321326 4288852643
-0.28978667 0.76199597 3.0279534 4288132266
-0.27828473 0.76263088 3.0261846 4288264104
-0.26796949 0.7634272 3.023577 4288133288
-0.25810638 0.76418132 3.0210803 4287085740
-0.24720463 0.76391667 3.0229723 4289247913
-0.23538813 0.76451552 3.0214076 4289442982
-0.22564368 0.76540685 3.0183189 4288068010
-0.21402323 0.76521409 3.0200098 4286363814
-0.20237118 0.76569235 3.0189261 4286887847
-0.19021091 0.76556164 3.0204411 4287804839
-0.18042001 0.76658565 3.0168102 4288721831
-0.17121971 0.76750785 3.0135038 4289179300
-0.15971474 0.76809311 3.0119631 4289375393
-0.14714767 0.76820821 3.0125332 4288916896
-0.13649529 0.76817149 3.013402 4287279523
-0.12466485 0.76838654 3.0134356 4288064926
-0.11275936 0.76855212 3.0136843 4288458141
-0.10361049 0.76977682 3.0091302 4286492577
-0.092206717 0.77020794 3.0082099 4287083173
-0.081886053 0.77076715 3.0065751 4286034338
-0.071110174 0.77129042 3.0051677 4287933855
-0.059194706 0.77150142 3.005234 4289114272
-0.050148923 0.77263433 3.0010421 4287475104
-0.038434755 0.77240604 3.0028415 4287408025
-0.02675925 0.77289981 3.0017216 4287801242
-0.015822722 0.77350986 2.9999952 4287933084
-0.0042705499 0.77419865 2.9980748 4287605402
0.0072163926 0.77462125 2.9972117 4287210902
0.01625376 0.7749244 2.9963415 4287079317
0.027244562 0.77551979 2.9946878 4286816660
0.038823485 0.77609044 2.993253 4287537556
0.048696786 0.77681577 2.9908612 4287472020
0.062280964 0.77649456 2.9933736 4287603091
0.071009032 0.77756393 2.9893839 4284915858
0.081861019 0.77805132 2.9881337 4286816145
0.09518937 0.77787602 2.9900105 4284979344
0.10466426 0.77897894 2.9860508 4284520596
0.11548061 0.77956921 2.984391 4285243285
0.12767829 0.77984846 2.9842451 4285964949
0.13963382 0.78007036 2.9842706 4285832593
0.1503526 0.78050673 2.9831898 4287729544
0.15698045 0.78161496 2.9785964 4288125061
0.16613181 0.78245455 2.9756019 4288257933
0.17779849 0.78293109 2.9745748 4288062095
0.19027255 0.78308105 2.9749894 4287996822
0.20282491 0.78320193 2.9755323 4287997584
0.21547821 0.78335005 2.975992 4287996297
0.22807643 0.78353888 2.9762816 4287993480
0.24067625 0.7838043 2.976279 4288126862
0.25112212 0.78434968 2.9747093 4288456084
0.25895572 0.7854529 2.9704087 4289179035
0.26653224 0.78596658 2.968276 4290555545
0.27509749 0.78693163 2.9646685 4291601294
0.28764427 0.78700429 2.965378 4292256664
0.29989767 0.78745782 2.9645853 4292518551
0.31193647 0.78783292 2.9640362 4292059797
0.32014897 0.78820026 2.9625762 4290748047
0.33084556 0.78866738 2.9613495 4291008906
0.34258562 0.78911018 2.9604714 4291139209
0.35392284 0.78922826 2.9606929 4290743166
0.36632472 0.78965014 2.9600573 4290018930
0.37880081 0.78997791 2.9597881 4290084482
0.38834694 0.79068571 2.9573824 4290742415
0.40099642 0.7909708 2.9573145 4290544522
0.41130152 0.79112566 2.957119 4290480271
0.4229643 0.79133207 2.9570775 4290281352
0.43309382 0.79172015 2.9559758 4290869889
0.44500566 0.79231399 2.9545927 4290936961
0.45567104 0.79320568 2.9518151 4290803064
0.46766767 0.79361981 2.9511094 4290346614
0.48231074 0.79341495 2.9533174 4290223248
0.49554154 0.793522 2.9540315 4289769382
0.50698316 0.79387915 2.9533765 4288984751
0.51728517 0.79432446 2.9521027 4288264111
0.5298081 0.79468995 2.9517038 4288264368
0.53886098 0.7955454 2.9486439 4288657583
0.55295908 0.79570401 2.9493999 4288789425
0.56523025 0.79616028 2.9486165 4288789684
0.57676947 0.79674476 2.9471877 4288790969
0.59017235 0.79702824 2.9473183 4288793534
0.60263067 0.79752129 2.9464619 4288600779
-1.8353682 0.70072514 3.2413154 4287179546
-1.8263216 0.69987267 3.2454822 4287114265
-1.7929507 0.71119088 3.1974623 4287441687
-1.7789023 0.71652734 3.1761458 4286917401
-1.7990178 0.70162213 3.240869 4286655512
-1.8318682 0.68017572 3.333874 4286983449
-1.8338034 0.67343616 3.3634386 4287442970
-1.8311775 0.66879767 3.3839469 4287574556
-1.8224862 0.66709805 3.3917742 4287181083
-1.8575577 0.64309418 3.4960172 4286853917
-1.8878925 0.6209808 3.5921822 4286854429
-1.9066364 0.60425454 3.6650739 4288230686
-1.9147547 0.59240478 3.7168047 4287968286
-1.9069978 0.58926624 3.7310224 4287968287
-1.9139262 0.57889712 3.7768235 4287705632
-1.9334184 0.56298602 3.8471906 4287312414
-2.1043179 0.47119531 4.2500029 4287836189
-2.2392836 0.39763361 4.5750189 4288163868
-3.0867178 -0.037650373 6.5019851 4288622107
-3.0564525 -0.033623118 6.487052 4288161816
-2.7423811 0.12267493 5.7996264 4288162330
-2.6199095 0.17496796 5.5692701 4288293152
-2.4974616 0.2284312 5.3337197 4288246389
-2.4982738 0.2163717 5.3881693 4288202433
-2.1043 0.42156461 4.4825048 4286565319
-1.9609444 0.4921374 4.1724052 4285307542
-1.8563019 0.54839379 3.9273608 4285373592
-1.8463005 0.54530758 3.9414709 4284914579
-1.8568361 0.52976602 4.0102906 4285697415
-1.8569773 0.52009487 4.0533652 4285699216
-1.7973646 0.54556805 3.9416878 4288251779
-1.781491 0.54579175 3.9412823 4289423717
-1.7240012 0.57308733 3.8221591 4289163364
-1.7025021 0.57782346 3.8020439 4289815133
-1.6323862 0.61222082 3.6514311 4288700000
-1.5321594 0.66169882 3.4343653 4288633700
-1.511187 0.66502494 3.4201601 4288504686
-1.4418877 0.69144088 3.3040876 4287788152
-1.3209321 0.73241132 3.1218927 4288246908
-1.3035074 0.73471749 3.1122534 4287066746
-1.290661 0.73523742 3.1106203 4287261035
-1.2773198 0.73675931 3.1047204 4287460711
-1.2648903 0.73768181 3.1014431 4289763715
-1.2539299 0.73837179 3.0993025 4289112214
-1.2465612 0.73794287 3.1022542 4287603605
-1.2347317 0.73942471 3.0966687 4289239435
-1.2251178 0.73977047 3.0961075 4288321924
-1.2153074 0.73989689 3.096458 4287924342
-1.2046778 0.74019229 3.0960174 4288058760
-1.1932975 0.74090803 3.0937231 4287465603
-1.1821837 0.74152368 3.0918791 4287593598
-1.1709626 0.7418679 3.0911889 4287793800
-1.1599402 0.74222028 3.0904837 4287471507
-1.1513813 0.74204022 3.0922477 4287799188
-1.1397902 0.74321932 3.0879557 4287276185
-1.1306486 0.74272287 3.0910327 4288587160
-1.119683 0.74351865 3.0884299 4289309337
-1.1091969 0.74403733 3.0870497 4288257423
-1.0987695 0.74431771 3.0867002 4287336842
-1.0885999 0.74432892 3.0875292 4288122503
-1.0778042 0.74510688 3.0850101 4289108627
-1.0664673 0.74552673 3.0840125 4289373342
-1.0579526 0.74556488 3.0848072 4288780951
-1.046429 0.74595106 3.0839508 4287729293
-1.0351442 0.7466867 3.0815918 4287596934
-1.0241606 0.74747092 3.0790348 4288059022
-1.0140144 0.74753958 3.0796211 4289500560
-1.0036303 0.748299 3.0771916 4287931294
-0.99336505 0.74804962 3.079159 4287476907
-0.98228884 0.74884194 3.0765631 4288526252
-0.97094554 0.74933141 3.0752831 4288786599
-0.96031237 0.75047112 3.0711815 4287867040
-0.94892305 0.75089836 3.0701761 4287737761
-0.93997478 0.75005448 3.0747764 4288982435
-0.92858124 0.75113809 3.0709033 4288716436
-0.91848201 0.75078773 3.0733263 4287724146
-0.9081884 0.75162369 3.0705495 4289230708
-0.89744735 0.75210822 3.0693076 4288314484
-0.886594 0.75355291 3.0638533 4288902512
-0.87640202 0.75357246 3.0646508 4289100147
-0.86511499 0.75431937 3.062258 4289304199
-0.85420454 0.75453031 3.0622196 4289046166
-0.84370446 0.75451261 3.0631847 4288646784
-0.83240986 0.75517493 3.0611703 4288453771
-0.82146686 0.75562227 3.0600989 4289043340
-0.81164408 0.7563709 3.0576844 4290285951
-0.80076784 0.75634289 3.0587034 4289500552
-0.79032701 0.7567969 3.0575929 4287992969
-0.77910829 0.75659484 3.0593896 4288710521
-0.76886064 0.75739717 3.05674 4290216825
-0.75832623 0.75788516 3.0554807 4289364600
-0.74850202 0.75794041 3.0561011 4290153597
-0.73745292 0.75837278 3.0551028 4290549645
-0.72624415 0.75867385 3.0546908 4290613379
-0.71511859 0.75927806 3.0529435 4290221958
-0.70487344 0.7597515 3.0517335 4289898134
-0.69459552 0.76047134 3.0494378 4290023810
-0.68333083 0.76046878 3.0503712 4290024067
-0.67275751 0.76128721 3.0476556 4289503121
-0.66217631 0.76144499 3.0478477 4289370508
-0.65094388 0.762016 3.0462594 4289169017
-0.64018178 0.76166975 3.0486801 4289562239
-0.62922502 0.76178992 3.0490601 4289890942
-0.61834681 0.76215971 3.0483377 4290024840
-0.60746795 0.76251495 3.0476797 4289766294
-0.59629202 0.76281261 3.0472968 4289831314
-0.58563799 0.76330394 3.046025 4290160022
-0.57472587 0.76376879 3.0448895 4289826947
-0.56373316 0.76421064 3.0438621 4289568145
-0.55252016 0.76441151 3.0439112 4289894795
-0.54119337 0.76462191 3.0439291 4289823095
-0.53193176 0.76659304 3.036052 4289430906
-0.52334982 0.76698256 3.0350351 4288905080
-0.51161444 0.76685053 3.0365877 4289102201
-0.50038034 0.76737475 3.035224 4288980888
-0.49018115 0.76847738 3.0312321 4288722086
-0.47905886 0.76875806 3.0309246 4288983719
-0.46803716 0.76918864 3.0299532 4288849050
-0.45771512 0.76916742 3.0308766 4288589475
-0.44617847 0.7694661 3.0305352 4288784284
-0.43460664 0.76959181 3.0309529 4288719774
-0.42359242 0.76981711 3.0308747 4288915354
-0.4131833 0.77027655 3.0297072 4288720544
-0.40191236 0.77051371 3.0296059 4289048482
-0.39111048 0.77075195 3.0294425 4288655265
-0.37952781 0.77092201 3.0296705 4288787623
-0.36807093 0.77098399 3.0303504 4288852133
-0.35657352 0.77151704 3.0289993 4288984490
-0.34592709 0.77219552 3.0269115 4289116590
-0.33607137 0.77272791 3.0253477 4288853157
-0.32514885 0.77283931 3.0257392 4288525220
-0.31464702 0.77364397 3.023087 4288525219
-0.30459842 0.7741394 3.0216999 4288001960
-0.29477605 0.77484298 3.0193832 4287282866
-0.28479475 0.77575701 3.0161862 4286693296
-0.27295342 0.77626181 3.0150208 4286953128
-0.26148051 0.77660388 3.0144992 4286232746
-0.25162801 0.77681065 3.0143051 4287542954
-0.23933689 0.77691442 3.014926 4288918694
-0.22897112 0.77771646 3.0122712 4288329128
-0.21828817 0.77800834 3.0118363 4287674024
-0.20894857 0.77908218 3.0078614 4288657833
-0.19889754 0.77991086 3.0050445 4289245603
-0.1861144 0.77952993 3.0078032 4288655268
-0.1742465 0.7797181 3.0080009 4288391582
-0.16291812 0.78011322 3.0072329 4289112992
-0.15223284 0.7806648 3.0056953 4288260766
-0.14146416 0.78140843 3.0033662 4288522909
-0.12913421 0.78093797 3.0064113 4287995795
-0.11913549 0.78178793 3.0034986 4288456344
-0.10783342 0.78208244 3.0031481 4286426784
-0.097550146 0.78281116 3.0007961 4288589728
-0.087453321 0.78357947 2.998246 4289571998
-0.076494165 0.7839784 2.9973953 4288457113
-0.064600714 0.7840541 2.998064 4288456341
-0.055284735 0.78522551 2.9936948 4288194714
-0.044867937 0.78554946 2.9930472 4288588703
-0.033523697 0.7860828 2.9917159 4289375904
-0.020969147 0.78602648 2.9930556 4288784023
-0.009295457 0.78653193 2.9919081 4288520854
-0.0010297837 0.78748709 2.9882267 4287013268
0.010540405 0.78762561 2.9885628 4285899155
0.021885335 0.78800809 2.9878535 4285570706
0.032102503 0.78853583 2.986316 4286882195
0.044600461 0.7888599 2.9860871 4287013265
0.055283584 0.78925115 2.9852018 4285635726
0.065471515 0.78991449 2.9831069 4284718995
0.078135341 0.789922 2.9841969 4286356370
0.089238577 0.79054874 2.9824495 4286617489
0.099149235 0.79127663 2.9800363 4285305486
0.1113389 0.79149395 2.9801772 4286419339
0.12235323 0.79222077 2.9780161 4287402123
0.13216075 0.7926504 2.9767747 4287534471
0.13742268 0.7941547 2.9702146 4287993474
0.14939997 0.79452699 2.969691 4287602059
0.16152538 0.7946049 2.9703693 4287736218
0.17374226 0.79483604 2.9704597 4288062611
0.18605731 0.79504442 2.9706624 4288324243
0.19839618 0.79526711 2.970813 4288193942
0.2109579 0.7954585 2.971139 4288063638
0.22361518 0.79558778 2.9717295 4288252550
0.23195533 0.7967878 2.9671028 4289760649
0.23866893 0.79761606 2.9635346 4290942351
0.24403019 0.79891431 2.9578032 4291857545
0.25570297 0.79926544 2.9572904 4292714129
0.26897496 0.79930311 2.9583831 4292387730
0.28125277 0.79938966 2.9590371 4292125336
0.29126874 0.80005944 2.9568822 4291406237
0.30448806 0.80015582 2.9577305 4292193950
0.31296438 0.80088538 2.9549582 4292651930
0.32283971 0.80089539 2.955276 4291862671
0.33462292 0.80139041 2.9542341 4290873982
0.34700474 0.80146235 2.9549487 4290936185
0.3579931 0.8019672 2.9536641 4290742410
0.36929852 0.80243182 2.9526141 4291142300
0.37898397 0.80292755 2.9510224 4291469468
0.39027944 0.80336952 2.9500542 4291271318
0.40235478 0.80374873 2.9495263 4291070347
0.41423514 0.80406666 2.9491749 4290936198
0.4265776 0.80439341 2.9489131 4290673283
0.43883324 0.80472994 2.9485915 4290740607
0.45090145 0.80500466 2.9484465 4290611841
0.46279353 0.80544055 2.94766 4290485650
0.47541133 0.80553776 2.9483116 4289703843
0.48822549 0.80576712 2.9485295 4288722606
0.49968234 0.80603641 2.9482284 4287870894
0.51230896 0.80617738 2.9487107 4288067759
0.52230233 0.80684102 2.9465711 4288330160
0.53326124 0.80746555 2.9448423 4288592560
0.54654545 0.80776054 2.9449475 4288724147
0.55807209 0.80831456 2.9436343 4288594615
0.57114571 0.80865109 2.9435329 4288596413
0.5840795 0.80901337 2.9433012 4288797130
0.59583694 0.80961657 2.9418831 4288668884
-1.8380542 0.71067226 3.2471304 4287049498
-1.8317062 0.70873582 3.256264 4287180058
-1.8211715 0.70885813 3.2563736 4287180313
-1.7842567 0.7242533 3.189991 4286589976
-1.7977837 0.71317512 3.2395909 4286393113
-1.8305491 0.69229203 3.3324904 4286721562
-1.8296695 0.6870783 3.3560784 4287115291
-1.8398167 0.67641395 3.4038372 4286918683
-1.8496462 0.6656369 3.4521263 4286394908
-1.8680592 0.65032244 3.5205631 4286460701
-1.8928614 0.63143539 3.6049054 4286788636
-1.9101999 0.61589593 3.6744626 4288033821
-1.9097867 0.60859716 3.7073104 4287967258
-1.8914478 0.61097926 3.6973722 4288033054
-1.899158 0.60060948 3.7443821 4287770653
-1.9232237 0.58333129 3.8228292 4287508509
-2.1648462 0.46822664 4.3449197 4287967260
-2.3458884 0.37240615 4.7792497 4287376925
-3.7586353 -0.33841079 8.0116215 4288491549
-3.6678557 -0.31097877 7.888082 4291112478
-3.1854146 -0.07911925 6.8361192 4288228379
-2.8708539 0.070906401 6.1563702 4288752669
-2.7840533 0.10344913 6.0099669 4288784547
-2.6690164 0.15082617 5.795516 4288510077
-2.3103735 0.33398649 4.9659772 4288071620
-1.9469817 0.51968741 4.1250277 4286355090
-1.8508718 0.56682462 3.9137232 4285766290
-1.833358 0.5681718 3.9082546 4285765776
-1.8219289 0.56588483 3.9191403 4285239695
-1.8105391 0.56358439 3.9301217 4285043086
-1.7843025 0.56963837 3.9033368 4286941572
-1.7591022 0.57632053 3.8739917 4288971904
-1.7239752 0.58774781 3.8229158 4289107080
-1.7035121 0.59159225 3.8062963 4290211681
-1.6344844 0.62396157 3.6607959 4288243037
-1.5673934 0.65387458 3.5262969 4287325030
-1.5121676 0.67496574 3.4314501 4288767601
-1.4281207 0.70580411 3.2920439 4287062640
-1.3241154 0.74194413 3.1278529 4288634737
-1.3063883 0.74479443 3.1156421 4288439155
-1.2863321 0.74852413 3.0993707 4288963435
-1.2732458 0.75014704 3.0929341 4290013288
-1.2617987 0.75076455 3.091018 4290409322
-1.2523397 0.75069016 3.092308 4288385148
-1.2444469 0.75016421 3.0957146 4287600264
-1.2323186 0.75187844 3.0889688 4288975745
-1.2201018 0.75292009 3.0851374 4289303162
-1.2115407 0.75277853 3.0868013 4287992444
-1.2026675 0.75292814 3.0871606 4287335551
-1.1914703 0.75331998 3.0862615 4287269506
-1.1808518 0.75351799 3.0862637 4287208590
-1.1697857 0.7538237 3.0857615 4287605656
-1.1595929 0.75419778 3.0850291 4288126863
-1.1495835 0.75462127 3.0840917 4288522142
-1.1388546 0.75525022 3.082196 4287996313
-1.129208 0.7553249 3.082818 4289438358
-1.118502 0.75602585 3.0806043 4288457629
-1.1079732 0.75638509 3.0799122 4288061330
-1.0973005 0.75681198 3.078913 4288581252
-1.0871363 0.75716519 3.078269 4288317308
-1.0755577 0.75812173 3.0748727 4287659898
-1.0639299 0.7587021 3.0731466 4287857025
-1.053113 0.75899446 3.0727446 4287665300
-1.0452029 0.75858027 3.0756187 4288974736
-1.0347979 0.75870603 3.0759778 4287991696
-1.0236652 0.75946873 3.0734689 4288384912
-1.0132245 0.75965017 3.0735815 4288909961
-1.0029266 0.7602666 3.0717542 4287930776
-0.99196982 0.76103401 3.0692306 4288852134
-0.98199576 0.76137984 3.0686193 4288131753
-0.97082853 0.76216376 3.066016 4287476652
-0.96001315 0.76236504 3.0660341 4288066728
-0.94874901 0.76277477 3.0651119 4287408286
-0.93983489 0.76206297 3.0692649 4288715930
-0.92821974 0.76443434 3.0595264 4289895062
-0.91792887 0.76422012 3.0614235 4288911251
-0.90771461 0.76425147 3.062218 4288189329
-0.89737016 0.76516706 3.0590298 4288581004
-0.88674557 0.76535434 3.0591207 4288517258
-0.87655091 0.76546329 3.0595639 4289240725
-0.86536771 0.76608413 3.0577049 4289245603
-0.85491061 0.76644683 3.0570061 4289245347
-0.84372097 0.76700991 3.0554121 4289500299
-0.83275896 0.76718926 3.0555499 4288779914
-0.82167614 0.76773322 3.0540462 4289307545
-0.81205583 0.76820922 3.0528207 4290226074
-0.80130637 0.76825523 3.0535603 4288908418
-0.79141045 0.7693876 3.0493674 4289035377
-0.78143805 0.76903123 3.0519018 4290215541
-0.76976508 0.76954424 3.0505602 4290345841
-0.7587899 0.77015942 3.0487368 4290018674
-0.74801654 0.77035153 3.048821 4289824892
-0.73856348 0.77043313 3.0493503 4290291610
-0.72745806 0.77091813 3.0481226 4290355089
-0.71637368 0.77173996 3.0453732 4290221959
-0.70569581 0.77198726 3.0452042 4290156938
-0.69518596 0.77277505 3.0425818 4289894282
-0.68401915 0.77327949 3.0412774 4289962132
-0.67374253 0.77342135 3.041563 4289170559
-0.66336763 0.77385521 3.0405319 4288709496
-0.65212846 0.77412266 3.0403073 4288970870
-0.64169437 0.77364594 3.0433934 4289560440
-0.63086849 0.77386886 3.0433431 4289889912
-0.61978984 0.77433199 3.042227 4289958534
-0.60904795 0.77466184 3.0416889 4289763470
-0.59790045 0.77490646 3.0415671 4289827464
-0.58698744 0.77532262 3.0406542 4289891972
-0.57626152 0.77594596 3.0387921 4289831319
-0.56564426 0.77637404 3.0378017 4289637024
-0.55545956 0.77765989 3.0329087 4289306004
-0.54432446 0.77826536 3.0311668 4289431938
-0.53348434 0.77838087 3.0316043 4289564037
-0.5247882 0.77890635 3.0299881 4288908677
-0.51424885 0.77927011 3.0292726 4288712581
-0.50348598 0.78021568 3.0259674 4288719774
-0.49230838 0.78059119 3.0252669 4288853675
-0.48104036 0.78083664 3.0251613 4288983978
-0.47045752 0.78152782 3.0229838 4289113766
-0.45974031 0.78113854 3.0256588 4288853674
-0.44843209 0.78162837 3.0244648 4288919206
-0.43753603 0.7818957 3.0242195 4289113247
-0.42579564 0.78190637 3.0252211 4289045141
-0.41541743 0.78231084 3.0242994 4288586903
-0.40455464 0.78285813 3.0227997 4288721829
-0.39378524 0.78298771 3.0231485 4288789163
-0.382393 0.78337258 3.0224416 4288657580
-0.37143844 0.78364223 3.0221899 4288983464
-0.35950813 0.78389519 3.0221443 4288982695
-0.34887016 0.78452116 3.0202699 4288918954
-0.34104609 0.78559655 3.0160077 4288331182
-0.33069471 0.78638327 3.0133784 4287806640
-0.31789646 0.78586215 3.0168843 4288330673
-0.30883577 0.78708494 3.012141 4288787627
-0.29732242 0.78773975 3.0102718 4288720547
-0.28750524 0.78760809 3.0116043 4286954416
-0.27601907 0.78820395 3.0099933 4287086257
-0.26420337 0.78848135 3.0098352 4286495918
-0.25534907 0.78914893 3.0074925 4287412394
-0.24406119 0.7895624 3.006654 4287475873
-0.23299257 0.79018122 3.004884 4288524964
-0.22383289 0.79120702 3.0010207 4288722343
-0.21286888 0.79178041 2.9994352 4289247399
-0.20242444 0.79195392 2.9994996 4289900450
-0.189771 0.79175645 3.0015566 4289638563
-0.1781722 0.79210097 3.0010772 4289702814
-0.16717653 0.79241425 3.0006256 4288851875
-0.15646383 0.79276747 2.9999487 4288326815
-0.14487353 0.79335648 2.9984152 4288455318
-0.13529274 0.793971 2.9964025 4288192660
-0.12350806 0.79409194 2.9969223 4289767837
-0.11302093 0.79498929 2.9938643 4289375904
-0.10199332 0.79512823 2.9941614 4286950814
-0.092186786 0.7958405 2.9917672 4289834142
-0.081500061 0.79641336 2.9901404 4289964441
-0.069752999 0.79653203 2.9906588 4289700756
-0.059032988 0.79714954 2.9888499 4288326043
-0.048566654 0.79747587 2.9882252 4288851360
-0.036760833 0.7979666 2.9871767 4289046425
-0.028863825 0.79905415 2.9828022 4287997078
-0.017971149 0.79949665 2.981771 4287013780
-0.00713947 0.79996914 2.9806011 4287668628
0.0043293936 0.80026871 2.9802928 4287537811
0.015475007 0.80028337 2.9811056 4287274382
0.026380843 0.80086982 2.9794726 4287799183
0.038246308 0.80139536 2.9783061 4287798413
0.049016919 0.80208051 2.9762383 4287338639
0.059701569 0.80216181 2.9766598 4285374099
0.071372502 0.80272341 2.9753077 4286029458
0.081081949 0.80344975 2.9728348 4285766032
0.094278425 0.8036828 2.9731917 4286550925
0.10559938 0.80404294 2.9725983 4288124044
0.1088273 0.80561936 2.9651377 4288516997
0.12081062 0.80598533 2.9646728 4288124803
0.13314945 0.80608219 2.9653912 4287864202
0.14540747 0.80628371 2.965662 4287799184
0.15752511 0.80643344 2.9661086 4287799442
0.16965859 0.80666727 2.9662158 4287931799
0.18181632 0.80692756 2.9662216 4288258967
0.19416305 0.80710644 2.9666007 4288456603
0.20569576 0.80764914 2.9653163 4289505946
0.21223068 0.80888951 2.9600046 4290291605
0.21987069 0.80975413 2.9564703 4290874504
0.2253744 0.81104058 2.9507146 4291595913
0.23678577 0.81136024 2.9502962 4292514185
0.2491024 0.81142128 2.9511318 4293169028
0.26218078 0.81157225 2.9518027 4292977300
0.27253747 0.81189859 2.9510803 4292977813
0.2844052 0.81241912 2.9499829 4292194462
0.29507908 0.81262118 2.9498248 4291996826
0.30561876 0.81304681 2.9487519 4291403151
0.3143757 0.81334215 2.9477115 4291335556
0.32603034 0.81385994 2.9465694 4292375920
0.33780846 0.81401777 2.946856 4291722372
0.34933028 0.814309 2.9465542 4291137684
0.36133072 0.81470215 2.9459872 4291203475
0.37376356 0.81475943 2.9468265 4290942870
0.38554314 0.81509537 2.9464169 4290945950
0.39745003 0.81548285 2.9458442 4291074966
0.40961647 0.81574833 2.945807 4291003014
0.42196861 0.81608361 2.9455545 4291065976
0.43418539 0.81644785 2.9451551 4291135871
0.44552213 0.81671381 2.9448817 4290748307
0.457782 0.81714928 2.9442248 4290556327
0.46808347 0.81771332 2.9425395 4290492334
0.47799984 0.81831539 2.9406042 4290034097
0.49096394 0.81869501 2.9403586 4289837744
0.5047431 0.81848824 2.9425223 4288657583
0.51487863 0.81894624 2.9411793 4288068272
0.52474326 0.81975538 2.9384618 4288265652
0.5371545 0.82018769 2.9378648 4288464056
0.55059153 0.82044315 2.9382126 4288466110
0.56342441 0.82081044 2.9379766 4288469962
0.57776666 0.82093853 2.9390488 4288602063
0.58821511 0.82173932 2.9365468 4288537811
-1.8502961 0.71685088 3.2702692 4287246361
-1.8392357 0.71682507 3.2709367 4287115034
-1.8346876 0.71419513 3.28354 4287245850
-1.8116028 0.71936637 3.2605762 4287114776
-1.8049836 0.72081053 3.2558146 4287048728
-1.8253857 0.70617294 3.3228145 4287311129
-1.8179617 0.70419365 3.3323505 4286852376
-1.8679488 0.67494416 3.4658313 4285935129
-1.8624181 0.67164338 3.4814317 4286131993
-1.8948241 0.64983511 3.5812385 4287049755
-1.9007641 0.64052629 3.6242445 4286787867
-1.9175684 0.62565821 3.6926255 4287180825
-1.8914182 0.6314339 3.6668146 4287901466
-1.8787601 0.63135827 3.667963 4287902235
-1.894592 0.61723918 3.7333403 4287574299
-1.9146003 0.60221756 3.8034563 4287508509
-1.849328 0.64519113 3.6129429 4287574044
-1.9413006 0.60221535 3.814539 4287442717
-2.0301487 0.55103886 4.0516911 4287180573
-2.0429587 0.53594583 4.1218486 4287377436
-2.1499257 0.47365832 4.4111614 4287377179
-3.0086548 0.029043907 6.4838791 4288294427
-2.7770131 0.13397317 5.9953499 4288754730
-2.4994655 0.266038 5.3807316 4288380545
-2.3260064 0.34653601 5.0068717 4287988871
-2.0510945 0.48386303 4.3691506 4287612612
-1.8513154 0.58234382 3.9126914 4285895822
-1.8286265 0.58618593 3.8954535 4286878351
-1.8105955 0.58745742 3.8901155 4286419085
-1.7948626 0.58795834 3.8884952 4287139723
-1.7758172 0.59034657 3.8781335 4286155397
-1.7565777 0.5926922 3.8679218 4288251267
-1.7244283 0.6020714 3.8249862 4288905596
-1.7029504 0.60640067 3.8057032 4290145382
-1.6452295 0.63118595 3.6914117 4288050274
-1.5747551 0.66297358 3.5447264 4287919720
-1.5092365 0.68607783 3.4375136 4287923839
-1.4439528 0.70808822 3.3355196 4287201408
-1.3239824 0.75308788 3.1264207 4288437871
-1.3043857 0.75677109 3.1100502 4288833652
-1.2837319 0.76101339 3.0910649 4289426811
-1.2719871 0.76185012 3.0881159 4290147962
-1.2603514 0.76258373 3.085638 4289949552
-1.2491198 0.76307112 3.0842991 4289885291
-1.2385789 0.76381576 3.0818851 4290088056
-1.2292407 0.764189 3.0812414 4289369475
-1.218725 0.76491725 3.0788953 4288716171
-1.2105229 0.76491708 3.0800149 4287405712
-1.2002705 0.76522696 3.0795612 4287274127
-1.1892557 0.76559335 3.0787926 4287273615
-1.1785721 0.76592636 3.0782044 4287469966
-1.1679568 0.76660848 3.07605 4288585102
-1.1573305 0.7671963 3.0743194 4289767572
-1.1478329 0.76693559 3.0765045 4289048218
-1.1381375 0.76693636 3.0774951 4287932825
-1.127044 0.7678346 3.0743277 4288327322
-1.1160432 0.76868147 3.071398 4288784021
-1.1063036 0.76872581 3.0721886 4288779652
-1.0971541 0.76905829 3.0716999 4287599502
-1.0855638 0.76962531 3.0700099 4287468424
-1.0744131 0.77005905 3.0689545 4287595380
-1.063077 0.77052069 3.0677667 4287592305
-1.0529342 0.77059346 3.0684147 4287989636
-1.0433375 0.77150643 3.0652409 4289824391
-1.0322875 0.77200079 3.063921 4288579206
-1.0232691 0.77134281 3.0679586 4288051837
-1.0117409 0.77220345 3.0649476 4288119679
-1.0007806 0.77391469 3.0580471 4289038721
-0.9919706 0.77329248 3.0619242 4287533962
-0.98195893 0.7733897 3.0624619 4287408031
-0.97073841 0.77380389 3.0615168 4287477420
-0.95962894 0.77419233 3.0606964 4287477161
-0.94852763 0.77453911 3.0600719 4287669146
-0.93909413 0.77490979 3.0593591 4288845460
-0.92806727 0.77640802 3.0534196 4290159001
-0.91705066 0.77667004 3.0531917 4289571487
-0.90781581 0.77594298 3.0575449 4287994518
-0.89750153 0.77705312 3.0533962 4288845459
-0.886967 0.77739686 3.052793 4288783261
-0.87622005 0.77770942 3.0523365 4289179559
-0.86541486 0.7781145 3.0514536 4288918439
-0.855214 0.77836651 3.0512743 4289440417
-0.84418964 0.77881765 3.0501838 4289110426
-0.83292693 0.77918732 3.0494785 4288981407
-0.82176441 0.78003871 3.0465393 4289242782
-0.8126092 0.78011799 3.0471377 4290159774
-0.80173892 0.78073406 3.0452838 4289959055
-0.79229158 0.78127921 3.043716 4289496966
-0.78150928 0.78171724 3.0426855 4289890179
-0.77000576 0.78227043 3.0411487 4289889406
-0.7593435 0.78213042 3.0428047 4289825667
-0.74981499 0.78275764 3.0408466 4289633169
-0.73933774 0.7834633 3.0385621 4289703584
-0.72836769 0.78379405 3.0380437 4289899421
-0.71736789 0.78396547 3.0382698 4290354066
-0.70697451 0.78414053 3.0384481 4290092951
-0.69612455 0.78480649 3.0363703 4290227876
-0.68498737 0.78530365 3.0350959 4290093463
-0.67464471 0.78544044 3.035449 4289496187
-0.66444963 0.78582501 3.0346389 4288906622
-0.65341997 0.78614718 3.0341744 4288972411
-0.6431728 0.78665709 3.0327833 4288774008
-0.63241231 0.78693283 3.0325162 4289038464
-0.62143552 0.78686357 3.0338678 4289303433
-0.61044562 0.78689587 3.0347493 4289439389
-0.59950191 0.78688067 3.0358477 4289829263
-0.58892357 0.78771806 3.0329623 4289831321
-0.57831705 0.78840357 3.0307844 4289703329
-0.56855088 0.7894277 3.026962 4289373082
-0.55717963 0.78955555 3.0274382 4289240216
-0.54651177 0.79028571 3.0250616 4289044634
-0.53602988 0.79076153 3.0238442 4289242012
-0.52601951 0.79117894 3.0228467 4288913048
-0.51670706 0.79204178 3.0197148 4288849052
-0.50542778 0.79210567 3.020479 4288787111
-0.49465832 0.79275066 3.0185082 4288786857
-0.48350346 0.79307443 3.0180631 4288787625
-0.47271845 0.79344773 3.0173483 4289115818
-0.46204731 0.79345387 3.0183089 4288984746
-0.45095783 0.79386675 3.0174482 4289048740
-0.43998176 0.79427373 3.016602 4289045656
-0.42919329 0.79466444 3.0158076 4288850076
-0.41776475 0.79451543 3.01757 4288784798
-0.40704802 0.79495502 3.0165417 4288981148
-0.3961179 0.79496151 3.0175228 4288721570
-0.38498276 0.79537904 3.0166512 4288853413
-0.37440634 0.79586273 3.0154009 4288786855
-0.36382148 0.79678851 3.0121365 4288720037
-0.35281885 0.79739898 3.0103722 4288525739
-0.34589103 0.79859138 3.0053596 4287937968
-0.33522546 0.79912823 3.0038781 4286886311
-0.32130814 0.79818583 3.0096073 4287606437
-0.31203535 0.79895407 3.006861 4288722089
-0.30087373 0.79967099 3.0046439 4288655783
-0.29099694 0.7999354 3.0042679 4288066216
-0.27980149 0.80038792 3.0032539 4287149996
-0.26983133 0.80143577 2.9993567 4287543212
-0.2590172 0.80132788 3.0008032 4288263335
-0.24996077 0.80250227 2.9961834 4288722342
-0.23842758 0.80292875 2.9953499 4288919722
-0.22680758 0.80303341 2.9959753 4288461481
-0.21570584 0.80360603 2.9944155 4288853926
-0.20558497 0.80383343 2.9942224 4289573796
-0.19654666 0.80485845 2.9902711 4288327329
-0.18353006 0.80452222 2.993113 4288851105
-0.17137286 0.80446219 2.9945655 4289308827
-0.16008045 0.80493599 2.9934859 4289963930
-0.149492 0.80552417 2.9917674 4289242779
-0.13942154 0.80619264 2.9895947 4288784540
-0.12976782 0.80700892 2.9866884 4288260763
-0.12011078 0.8075009 2.9852104 4287605145
-0.10834157 0.80797994 2.9842105 4288390809
-0.098038986 0.80841976 2.9830887 4288915353
-0.086794883 0.80889839 2.9819884 4288783769
-0.075665005 0.8094005 2.9807639 4288456602
-0.064656109 0.80966645 2.9805455 4287736221
-0.054533008 0.81040263 2.978092 4288129434
-0.044802822 0.81069678 2.9774747 4287079829
-0.035058245 0.81150359 2.9746335 4286620053
-0.025199041 0.81238854 2.9714818 4285375125
-0.013776517 0.81241852 2.9723642 4286685328
-0.0020865856 0.81281179 2.9717381 4286029712
0.0091248853 0.81327957 2.9706872 4285438088
0.02007838 0.81336766 2.9712059 4287405199
0.034358613 0.8130914 2.9740334 4287600527
0.044330269 0.81389636 2.9712594 4287075982
0.055332433 0.81401825 2.9716337 4285896848
0.066387847 0.81473529 2.9694879 4286618257
0.076702558 0.81551504 2.9669082 4287863182
0.086054817 0.81623727 2.9643483 4288255369
0.092351854 0.81746024 2.9589467 4288059269
0.10465136 0.81746936 2.9600935 4288322955
0.11676983 0.81772423 2.9601624 4288258703
0.12874645 0.8180142 2.9600496 4288322700
0.14109799 0.81809586 2.9608982 4288061069
0.15340845 0.81820673 2.9616125 4287994761
0.16556691 0.81838048 2.9620249 4287996563
0.17761458 0.81866789 2.9619372 4288652695
0.18201223 0.82032931 2.9542415 4290029979
0.18530057 0.82187772 2.946728 4291209624
0.19619973 0.82220709 2.9461753 4292258454
0.20753719 0.82279211 2.9446883 4292321169
0.21948622 0.82295191 2.9450996 4292187531
0.2317099 0.82309735 2.9456384 4292449415
0.24224223 0.82356846 2.9444067 4292583304
0.25546443 0.82376117 2.9450142 4292322449
0.26496008 0.82394081 2.9446809 4293173645
0.27613166 0.82422221 2.9443774 4291795339
0.28742677 0.82460028 2.9437163 4293104515
0.29932725 0.82491177 2.943485 4292578428
0.3091611 0.82501477 2.9435194 4292114810
0.32094768 0.82553196 2.9424329 4292049797
0.33269319 0.82588023 2.9420078 4291853960
0.34467039 0.82599533 2.9425681 4291725711
0.3567571 0.82633996 2.9422493 4291527562
0.36884329 0.82638597 2.9431033 4291197056
0.38090831 0.82670146 2.9428892 4291002504
0.39275372 0.8270874 2.9423368 4291265415
0.40360844 0.82753068 2.9412804 4291131254
0.41212016 0.82813418 2.9389336 4290678144
0.42385024 0.82844973 2.9386191 4290552726
0.43494344 0.82885301 2.9377816 4290817956
0.44782811 0.82921296 2.9376266 4291213230
0.45985705 0.8297047 2.9367199 4290820527
0.47294664 0.82993042 2.9371407 4290099632
0.48536855 0.83037108 2.9365461 4289706673
0.49647751 0.83066827 2.936115 4288985264
0.50512415 0.83139235 2.9333408 4288134322
0.51658022 0.83189225 2.9322414 4288004277
0.53030235 0.83210599 2.9328899 4288400831
0.54305649 0.83247399 2.9326718 4288601292
0.55363476 0.83317637 2.9305575 4288340433
0.56696641 0.8334626 2.9308193 4288406483
0.58019757 0.83381736 2.9307954 4288601548
-1.8580537 0.72500676 3.2851536 4287245849
-1.8504901 0.72358638 3.2924135 4287180312
-1.8424913 0.72231984 3.2989666 4287128652
-1.8376189 0.71972471 3.3117495 4287114778
-1.8153862 0.72715002 3.2787218 4287114777
-1.8204198 0.71978098 3.313658 4287442714
-1.8289794 0.71059757 3.3570731 4287181337
-1.8651283 0.6883834 3.4613054 4286066969
-1.8776053 0.67670524 3.5164382 4286589978
-1.8922595 0.66382074 3.5772913 4286850837
-1.9103189 0.64896435 3.6474016 4286392599
-1.9227874 0.63665843 3.7057245 4286786074
-1.8189411 0.68084407 3.4998715 4287506968
-1.8733373 0.64784211 3.6549592 4287311387
-1.9170971 0.62234777 3.7761772 4287245849
-1.9785728 0.58905411 3.9348841 4287115035
-1.9934489 0.59021538 3.9363611 4286918682
-1.9452994 0.61477047 3.8240225 4287770652
-2.0886745 0.53821969 4.1882358 4286525727
-1.8903854 0.62713516 3.7665117 4287442972
-3.5138702 -0.17572244 7.608798 4290064414
-2.9636784 0.080645986 6.3801775 4288491548
-2.6612904 0.2190088 5.7181664 4288360996
-2.4211628 0.32924038 5.1913533 4288263083
-2.312191 0.37460908 4.9752913 4288244847
-1.995358 0.53012264 4.233222 4287934894
-1.8472762 0.59943134 3.9036071 4286629314
-1.8256614 0.60276127 3.8884082 4287729035
-1.8069353 0.60478038 3.8795097 4288188043
-1.7899888 0.60584587 3.8751521 4288449418
-1.7726309 0.60715348 3.8696485 4287202947
-1.7552421 0.60866499 3.8632243 4286874754
-1.7342815 0.61187726 3.8486114 4288774524
-1.7083131 0.61790377 3.8205676 4288839792
-1.6598661 0.63469774 3.7407386 4287989888
-1.6405277 0.63649398 3.7327218 4288574564
-1.5589212 0.66895956 3.577863 4289365886
-1.4564658 0.70883995 3.3877883 4287594624
-1.330865 0.75960505 3.1464562 4288770680
-1.3042283 0.76692873 3.1124246 4288903297
-1.2829331 0.77236593 3.0874817 4290543237
-1.2708187 0.7733658 3.0836973 4290215815
-1.2591324 0.77418995 3.0807595 4290213497
-1.2473763 0.77493542 3.0781758 4290276205
-1.2369865 0.7759794 3.0743604 4289032293
-1.2278466 0.77642632 3.0733936 4288188796
-1.2177637 0.77656823 3.0737371 4288652692
-1.2076617 0.77713984 3.0721025 4289374617
-1.1981181 0.77750486 3.0714643 4288782996
-1.1866733 0.77805263 3.0698249 4288849048
-1.1766391 0.7783426 3.0694933 4289370510
-1.1671866 0.77844578 3.070071 4289701525
-1.1562805 0.77880681 3.0693469 4289767832
-1.1467894 0.77867413 3.0710192 4289046933
-1.1362497 0.77918053 3.0696502 4288128400
-1.1254244 0.78034616 3.0651915 4289244309
-1.1142112 0.78105831 3.0628197 4288846212
-1.1054178 0.78078121 3.0652084 4287730569
-1.0958896 0.78082901 3.0660362 4287279261
-1.0850542 0.78115511 3.0654955 4287081624
-1.0739406 0.78158575 3.0644553 4287274899
-1.0626194 0.78210402 3.0629985 4287601296
-1.0527253 0.78314042 3.05917 4288904821
-1.042688 0.7831924 3.0599589 4290022785
-1.0318431 0.78359145 3.0590866 4289169539
-1.0221432 0.78402472 3.0580926 4288444792
-1.0115259 0.78511411 3.0539713 4289102975
-1.0006316 0.78554624 3.0529435 4288578942
-0.99077618 0.78563792 3.0535519 4288316281
-0.98014551 0.7859875 3.0529242 4287993741
-0.96867281 0.78652799 3.0513806 4288065704
-0.95725554 0.7870295 3.0500274 4288198312
-0.94852388 0.78715003 3.0505171 4289176990
-0.93940884 0.78758097 3.0495205 4289959058
-0.92809415 0.78801161 3.0485094 4290090385
-0.91753292 0.78857332 3.0468812 4289568919
-0.90684915 0.78945237 3.0437443 4289368973
-0.89630252 0.78957909 3.0441859 4289630603
-0.88579518 0.78973705 3.0444808 4289043090
-0.87599528 0.79018664 3.0433803 4288258198
-0.8648833 0.79081464 3.0414445 4288783002
-0.85541624 0.79019088 3.0454514 4289113763
-0.84462112 0.79120672 3.0416636 4289965990
-0.83324975 0.79197043 3.0390918 4289964190
-0.82246947 0.79228377 3.0386586 4288912537
-0.81201828 0.79298425 3.0363698 4289043864
-0.80277777 0.79288727 3.0378494 4290028442
-0.79284257 0.79302073 3.0382464 4289962137
-0.78195423 0.79357362 3.036674 4289895063
-0.77059019 0.79445481 3.033555 4289962140
-0.76019007 0.79469633 3.0334549 4290356894
-0.74966323 0.79533046 3.0314834 4290357665
-0.73997563 0.79549992 3.0316908 4289964190
-0.72923237 0.79552895 3.0326219 4289764758
-0.7181989 0.79618406 3.0305781 4290158486
-0.70789087 0.7960189 3.0324149 4289964960
-0.6970638 0.79665625 3.030447 4290027675
-0.6861037 0.79735905 3.028177 4290092699
-0.67527103 0.79772371 3.0275168 4289831066
-0.66539609 0.79804736 3.0269861 4289372057
-0.65461838 0.79789823 3.0287766 4288977043
-0.64432454 0.79842734 3.0272908 4288584598
-0.63370466 0.79902846 3.0254862 4288586394
-0.62278718 0.79962188 3.0237441 4288719778
-0.61213291 0.79910749 3.027267 4288980639
-0.60200149 0.79992533 3.0243871 4289044377
-0.59212619 0.80089456 3.0207608 4289047202
-0.58138251 0.80133295 3.0197446 4289376931
-0.57028586 0.80168051 3.0191967 4289570202
-0.55915135 0.80225945 3.0175538 4289699735
-0.54904586 0.80245519 3.0176311 4289307549
-0.53838956 0.80272621 3.017405 4289309857
-0.52771705 0.80319935 3.0162201 4289372828
-0.51857215 0.80396473 3.0134761 4289046176
-0.50738257 0.80389577 3.01492 4288783514
-0.49670589 0.80453998 3.0129232 4288780172
-0.48587361 0.80493402 3.0121315 4288912017
-0.47486696 0.8052277 3.0118377 4288978322
-0.46427071 0.8056311 3.0109737 4288918438
-0.4537237 0.80650836 3.0078647 4288721829
-0.44285235 0.8066175 3.0084269 4288720284
-0.43183503 0.80690372 3.0081723 4288589210
-0.42051858 0.80709761 3.0083942 4288655520
-0.40949041 0.80706799 3.009629 4288785822
-0.39853311 0.80708635 3.0106254 4288981403
-0.38889948 0.80784732 3.0079398 4288457115
-0.37868252 0.80850548 3.0058205 4288262307
-0.36718595 0.80890578 3.0051017 4288001448
-0.35652283 0.80958009 3.0029769 4288002990
-0.3482964 0.810229 3.0005932 4287609518
-0.33767864 0.81076533 2.9991043 4287014300
-0.3273828 0.8113175 2.9974904 4286951590
-0.3168999 0.81198806 2.9953556 4286822058
-0.30661726 0.81230277 2.994843 4287739304
-0.29530734 0.81223261 2.9962873 4287476904
-0.2831358 0.81240487 2.996753 4287872175
-0.27307063 0.81350976 2.9925385 4288001450
-0.26379824 0.81343144 2.9936566 4288591531
-0.25266686 0.81408459 2.9917204 4288723628
-0.24153127 0.81465447 2.9901731 4288854444
-0.23074737 0.8149811 2.9896836 4288853926
-0.21903265 0.81540394 2.9889245 4288918693
-0.20874798 0.8156032 2.9889247 4289312680
-0.1996536 0.81657451 2.9851577 4288067239
-0.18820651 0.81682402 2.9851453 4287278751
-0.17727508 0.81704885 2.9851441 4287081115
-0.16765499 0.8180387 2.9813976 4287276697
-0.15526477 0.8179093 2.9832969 4287737504
-0.14309055 0.81788814 2.9846592 4288525222
-0.13287751 0.81857705 2.9824033 4287671966
-0.12422206 0.81945968 2.9789503 4288784280
-0.11279041 0.81991029 2.9780262 4288849302
-0.10209704 0.8205561 2.9760699 4288587161
-0.0905881 0.82097554 2.9753082 4288653210
-0.078577586 0.82079256 2.9773588 4287932059
-0.063703425 0.82043409 2.9808106 4286882711
-0.060080484 0.82236093 2.9715874 4285899412
-0.05007305 0.82292616 2.9698458 4285833617
-0.039556935 0.82325757 2.9692569 4285506197
-0.028691297 0.8239069 2.9673338 4285112721
-0.019496907 0.82438743 2.9657791 4287339147
-0.0082451319 0.82501954 2.9640255 4286551944
0.003227463 0.82552314 2.9628944 4286485640
0.012572483 0.82603359 2.9612374 4285699984
0.024240548 0.82645547 2.960515 4285830544
0.035808221 0.82676697 2.9602542 4286288011
0.045039859 0.82741106 2.9579797 4287795848
0.056702856 0.82740915 2.9591067 4288058247
0.064377546 0.82852674 2.9543877 4288188802
0.076202892 0.82891268 2.9538662 4288059781
0.088347591 0.82907224 2.9544046 4287929737
0.10053725 0.82922512 2.9549816 4288128147
0.11257864 0.82945126 2.9552045 4288259477
0.12438494 0.82981414 2.9547803 4288324496
0.13575719 0.83021098 2.9541016 4288585099
0.14756782 0.83072561 2.9530325 4288650378
0.15774417 0.83115458 2.9519117 4289631112
0.16179484 0.83217216 2.9466922 4290814355
0.16718161 0.83357823 2.9401646 4291928980
0.17885065 0.83394551 2.9396899 4292586393
0.1905726 0.83421648 2.9396355 4292516238
0.20315968 0.83430094 2.9405944 4292056970
0.21465424 0.83450127 2.9407709 4292845715
0.22597887 0.8347469 2.9407079 4292912274
0.23727684 0.83508992 2.9402294 4293041291
0.24713966 0.83570993 2.9382064 4292516485
0.25777557 0.8356275 2.9393024 4291992974
0.26786873 0.83566123 2.9397533 4292843654
0.2797946 0.83611453 2.9389825 4292904314
0.29075292 0.83657968 2.9378934 4292511879
0.30183205 0.83701771 2.9369493 4291725452
0.3124904 0.83747011 2.9358273 4292117899
0.32406515 0.8379131 2.9350049 4292182921
0.33563522 0.83829147 2.9344442 4291985028
0.34582084 0.83851451 2.9341106 4291855239
0.35709396 0.8389377 2.933279 4291920003
0.36944422 0.8392415 2.9332404 4291592580
0.38146463 0.83963853 2.9327321 4291853944
0.39293692 0.83977729 2.9330935 4291137924
0.40472853 0.84009016 2.9328506 4291208857
0.41675475 0.84045434 2.9324722 4291343530
0.42930278 0.84062529 2.9330115 4291278253
0.44164559 0.8409428 2.9329093 4290820271
0.45419532 0.84133595 2.9325709 4290886321
0.4679023 0.84147125 2.9335897 4289837745
0.47874007 0.84178156 2.9330611 4288658097
0.48280773 0.84323859 2.9260252 4288003251
0.49704888 0.84335327 2.9272845 4288136377
0.51001179 0.84365684 2.9274232 4288205765
0.52159804 0.84423536 2.9260833 4288274384
0.53326774 0.84470648 2.925185 4288537555
0.54699641 0.8449409 2.9258244 4288537297
0.56093198 0.84513396 2.9266837 4288603603
0.572887 0.84568149 2.9255834 4288536267
-1.8700681 0.73169792 3.307703 4287050010
-1.8613046 0.73071527 3.3130698 4287312410
-1.8553644 0.72863448 3.3237531 4287246618
-1.8505558 0.72604775 3.3368821 4287050268
-1.8085873 0.74031734 3.269644 4287181082
-1.8228199 0.7298823 3.320519 4287181338
-1.8821961 0.69835162 3.4722502 4285957992
-1.865518 0.70026523 3.4637473 4286087012
-1.8858641 0.68531203 3.5361257 4286482032
-1.892138 0.6765219 3.5790067 4285933077
-1.9084119 0.66296101 3.6448734 4286327321
-1.9130937 0.6549356 3.6843657 4287047959
-1.821965 0.69206387 3.5068364 4287638042
-1.8460301 0.6761446 3.5846875 4287114521
-2.0559719 0.57677782 4.067739 4287114779
-2.0725682 0.56426388 4.1304407 4287574044
-2.1167107 0.54358619 4.2353363 4286657052
-2.3382356 0.44105759 4.741673 4287116061
-2.2747169 0.46659389 4.6200609 4287509533
-4.157681 -0.43113092 9.0442429 4288426784
-3.425782 -0.099388488 7.4103446 4288033311
-2.9844606 0.099008366 6.4338083 4288098590
-2.5839057 0.28157398 5.535234 4287901981
-2.350497 0.38600063 5.0223198 4287966235
-2.1330829 0.48506534 4.5363493 4288651671
-1.9884051 0.55021137 4.2177935 4288112744
-1.8442841 0.6164459 3.8942702 4287467918
-1.8227394 0.61922842 3.8812072 4287350466
-1.8039126 0.6212377 3.872129 4288514694
-1.7868751 0.62245196 3.8669848 4287531397
-1.7697774 0.62361056 3.8620887 4286023042
-1.7521248 0.62541109 3.8541451 4286022527
-1.733514 0.62758619 3.8443179 4287725690
-1.7076273 0.63293308 3.8187151 4289428337
-1.6821088 0.63796389 3.7946262 4288969334
-1.6639193 0.6397931 3.786443 4288255628
-1.6636181 0.63390166 3.8166962 4287459432
-1.6065024 0.65308642 3.7223485 4287587688
-1.4749587 0.7065503 3.4596369 4287787639
-1.3656864 0.75103736 3.2426999 4288904320
-1.2791315 0.78519249 3.0762737 4289232002
-1.2674124 0.78565586 3.0749633 4289820284
-1.257944 0.78572243 3.0757515 4290277750
-1.2462922 0.78636646 3.0736103 4290209133
-1.2358786 0.78744465 3.0695467 4288964459
-1.2268364 0.78783965 3.0688243 4288313195
-1.2165388 0.78810078 3.0686166 4289172866
-1.2058042 0.78879863 3.0663059 4289440665
-1.1971158 0.78906244 3.066221 4288391318
-1.1855701 0.78975302 3.0638759 4287931029
-1.1742495 0.7903114 3.0621808 4287928715
-1.1647003 0.79054379 3.0621734 4288783254
-1.1545316 0.79105443 3.0607932 4288256148
-1.1442596 0.79134673 3.0604479 4288844174
-1.1335493 0.79229778 3.0569234 4288974219
-1.1234504 0.79265958 3.0562563 4288055170
-1.1133416 0.79281133 3.0565965 4288513920
-1.1028992 0.79342145 3.0547185 4289176987
-1.0925983 0.79384488 3.0537448 4288720539
-1.0825481 0.79394084 3.0543611 4288197022
-1.0712731 0.79443735 3.0529921 4288584848
-1.0604089 0.7948817 3.0518978 4288846477
-1.0508393 0.79530925 3.0509393 4289305747
-1.0405003 0.79581112 3.0495887 4288188807
-1.0305392 0.79575866 3.0509355 4288777862
-1.020439 0.79693675 3.0463126 4289496709
-1.0109037 0.79690045 3.0475914 4288513417
-0.99988985 0.7973603 3.0464251 4288058260
-0.99016392 0.7976563 3.0460854 4289040528
-0.97904903 0.79828638 3.0440936 4289039499
-0.96822488 0.798711 3.0431101 4288715670
-0.95913118 0.79880571 3.043756 4289243037
-0.95043451 0.79867506 3.0454974 4289833120
-0.93933189 0.79906815 3.0446687 4290091672
-0.92803442 0.79959005 3.043215 4290156432
-0.91690487 0.80040359 3.0403392 4290026382
-0.90661025 0.80126888 3.0372076 4289302920
-0.89667183 0.80158681 3.0367503 4289039494
-0.88645679 0.80190355 3.0362999 4288515972
-0.87568378 0.80206966 3.0365963 4288516484
-0.86482102 0.80265796 3.0348275 4289239180
-0.85618657 0.80262858 3.0360434 4290096802
-0.84503132 0.80304587 3.035121 4290163366
-0.83367795 0.80349761 3.0340393 4289899424
-0.82289392 0.80401957 3.0326009 4289503387
-0.81313765 0.80464375 3.0306273 4289633943
-0.80322218 0.80496901 3.0301244 4290224279
-0.79273891 0.80522025 3.0300057 4290487196
-0.7817564 0.8057881 3.0283525 4290486940
-0.77141422 0.80625325 3.027178 4289828496
