# .PCD v0.7 - Point Cloud Data file format
VERSION 0.7
FIELDS x y z rgb
SIZE 4 4 4 4
TYPE F F F U
COUNT 1 1 1 1
WIDTH 1118
HEIGHT 1
VIEWPOINT 0 0 0 1 0 0 0
POINTS 1118
DATA ascii
10.291656 -1.3084657 0.45649242 4284243036
10.245798 -1.3330458 0.46277571 4284045657
10.276778 -1.3677014 0.45765606 4283914071
10.273536 -1.3977474 0.4575015 4283848278
10.305117 -1.4328834 0.45241898 4284045657
10.440115 -1.4834801 0.43250477 4284374622
10.576499 -1.5348158 0.41206396 4284572001
10.641823 -1.5760961 0.40185654 4284440415
10.499431 -1.58584 0.42214084 4284506208
10.478923 -1.6138318 0.42451099 4284572001
10.470909 -1.6437594 0.42511699 4284506208
10.605243 -1.6967554 0.40476266 4284440415
10.745546 -1.7516586 0.38368517 4284177243
10.849184 -1.8012056 0.36797169 4284045657
10.986537 -1.8571814 0.34734079 4283848278
11.071875 -1.9048734 0.33430767 4283650899
11.352564 -1.9877368 0.29256755 4283519313
11.594876 -2.0652821 0.25636002 4283453520
11.63852 -2.1078813 0.24939728 4283519313
11.883243 -2.1882269 0.2129032 4283519313
12.045044 -2.2542794 0.18850246 4283519313
12.132386 -2.3069608 0.17500433 4283519313
12.272379 -2.3704853 0.1538244 4283519313
12.439843 -2.4403346 0.12866969 4283585106
12.660557 -2.5218847 0.095658518 4283716692
12.827936 -2.5938621 0.070480853 4283716692
12.93276 -2.6539173 0.054557893 4283650899
12.988152 -2.7041969 0.045872279 4283650899
13.184178 -2.7847853 0.016510686 4283585106
13.224169 -2.8328569 0.010145046 4283453520
13.275022 -2.8835714 0.0022220635 4283387727
13.46391 -2.9651897 -0.026104845 4283387727
13.565167 -3.0281813 -0.041615129 4283321934
13.71985 -3.1039929 -0.064929202 4283387727
13.926232 -3.1927388 -0.095725283 4283453520
14.313639 -3.3250263 -0.1532483 4283519313
14.679027 -3.4543498 -0.20766075 4283519313
14.777648 4.8862724 -0.26051363 4283716692
14.239767 4.665143 -0.17962329 4284243036
14.064352 4.5653248 -0.15305598 4284506208
14.09852 4.5342636 -0.15776515 4284900966
14.093238 4.4903684 -0.15660022 4285098345
14.161442 4.4697299 -0.1666006 4284900966
14.27173 4.4619451 -0.18276873 4284703587
14.294138 4.4262896 -0.18549812 4284637794
14.22321 4.3618131 -0.17413156 4284703587
14.14428 4.2953029 -0.16162491 4284572001
14.093873 4.2377615 -0.15368608 4284703587
14.040618 4.1797509 -0.14512697 4284637794
13.895967 4.09516 -0.12252799 4284374622
13.793882 4.0238023 -0.1065679 4284374622
13.613926 3.9305794 -0.078710079 4284572001
13.397261 3.8276348 -0.046001907 4285032552
13.078623 3.6971204 0.0021870681 4285953654
12.922763 3.6143003 0.026115965 4285953654
13.091641 3.6211424 -0.0021350977 4284572001
14.880672 2.9133255 -0.26730081 4285295724
14.213799 2.7398682 -0.16602579 4285953654
13.696959 2.5992138 -0.087079696 4285953654
13.861197 2.586798 -0.11512978 4284374622
13.971528 2.522275 -0.13361005 4282400832
12.834347 2.2781861 0.039779767 4282203453
11.848322 2.0673738 0.1901817 4282203453
11.275917 1.9335806 0.27763909 4282400832
10.582009 1.7813247 0.38168579 4283190348
9.9587431 1.6432942 0.47288072 4284572001
9.8580942 1.5965217 0.48780009 4285229931
9.8899727 1.5724885 0.48376435 4285361517
9.983325 1.5578903 0.47033188 4285295724
9.9519539 1.5234255 0.47572425 4285295724
9.9531097 1.4941889 0.47631052 4285361517
9.9170532 1.4589111 0.48191485 4285164138
9.7329473 1.4013118 0.50880748 4284440415
9.6164484 1.3549485 0.52607816 4283914071
9.6508741 1.3309859 0.52121753 4283716692
9.6894388 1.307472 0.51582187 4283716692
9.6436033 1.2726086 0.52336168 4283650899
9.6973915 1.2510242 0.51579469 4283519313
9.7423143 1.2279589 0.50952768 4283453520
9.8108644 1.2075427 0.49964318 4283453520
9.8972807 1.1888572 0.48700988 4283585106
9.871089 1.1561682 0.49129879 4283650899
9.7959394 1.1180792 0.50309271 4283716692
9.8159132 1.0912632 0.50056636 4283782485
9.7723484 1.0572492 0.50755197 4283848278
9.6406126 1.0137531 0.52760011 4284243036
9.6226282 0.98321736 0.53073454 4284374622
9.6059694 0.95307714 0.53377825 4284374622
9.5619974 0.91992009 0.54059762 4284572001
9.5382128 0.88891065 0.54434186 4284835173
9.4321041 0.8508172 0.56079453 4284966759
9.3433008 0.81507879 0.57474244 4284966759
9.2118406 0.77618551 0.5951156 4284900966
9.1279583 0.74200368 0.60825461 4284769380
9.0864687 0.71181428 0.6150201 4284703587
9.0368748 0.68130904 0.62302524 4284703587
9.0969858 0.65924799 0.61440909 4284769380
9.0510941 0.62940133 0.62187225 4284835173
9.0275974 0.60125816 0.62586129 4284637794
9.0875435 0.57885104 0.61726868 4284637794
9.1328716 0.55515814 0.61084175 4284769380
9.1380033 0.52842849 0.61028451 4285229931
9.1167126 0.50045639 0.61383164 4285558896
9.1613426 0.47633338 0.60745227 4285427310
9.2369194 0.45326295 0.59624749 4284966759
9.2641182 0.4273805 0.59231156 4284506208
9.0169935 0.38862312 0.62972474 4283716692
9.0380526 0.36259419 0.62655824 4282598211
11.905362 0.44247892 0.19096732 4282861383
13.442055 -0.99108285 -0.045604784 4283716692
12.227552 -0.93964642 0.1401113 4282598211
11.663872 -0.93093938 0.22553167 4283585106
11.217218 -0.92860776 0.2931821 4284374622
10.914306 -0.93595761 0.33897114 4284900966
10.789314 -0.95713365 0.35755315 4285164138
10.492624 -0.96148497 0.40198794 4285098345
10.477836 -0.99134904 0.40396374 4284835173
10.412897 -1.015888 0.41327783 4284572001
10.379856 -1.0433756 0.41782033 4284440415
10.33269 -1.0691787 0.42447481 4284440415
10.280244 -1.0941001 0.43188059 4284374622
10.253533 -1.1214629 0.43528232 4284374622
10.179253 -1.1433023 0.44590256 4284374622
10.168035 -1.1721128 0.44701183 4284308829
10.171577 -1.2026529 0.445898 4284243036
10.245847 -1.2419673 0.43414226 4284243036
10.262305 -1.2744108 0.43106779 4284308829
10.169173 -1.2930385 0.44475949 4284177243
10.13373 -1.3186349 0.4496375 4284111450
10.072368 -1.3404344 0.45831981 4283979864
10.18529 -1.3859293 0.44069976 4283914071
10.179656 -1.4154692 0.44105545 4284045657
10.233809 -1.4539379 0.4328005 4284374622
10.420002 -1.5121096 0.40460148 4284966759
10.386605 -1.5380058 0.40896872 4284900966
10.337174 -1.5612862 0.41578445 4284637794
10.35183 -1.5942675 0.41292137 4284637794
10.30761 -1.6179658 0.41890883 4284572001
10.470147 -1.675064 0.39393944 4284440415
10.64572 -1.735451 0.36722571 4284177243
10.7658 -1.7874839 0.34876567 4283979864
10.826488 -1.8300358 0.33919236 4283848278
10.936336 -1.8815272 0.32224196 4283650899
11.158836 -1.9536412 0.28836045 4283585106
11.27559 -2.0079012 0.27018139 4283716692
11.46986 -2.0773017 0.24070898 4283650899
11.580121 -2.1321361 0.22373064 4283387727
11.720041 -2.1931331 0.2021281 4283387727
11.788471 -2.2412088 0.19122574 4283387727
11.90776 -2.2996778 0.17276825 4283387727
12.078761 -2.3691416 0.14659497 4283519313
12.223985 -2.4344282 0.12426608 4283585106
12.419642 -2.5109127 0.094416201 4283585106
12.47479 -2.5594442 0.085626878 4283519313
12.575216 -2.6178033 0.070006311 4283453520
12.655687 -2.6725724 0.057483651 4283387727
12.7095 -2.7220631 0.048960395 4283321934
12.812393 -2.7826138 0.033040363 4283256141
12.989846 -2.8603075 0.0058703907 4283256141
13.097797 -2.923377 -0.010952633 4283321934
13.243094 -2.9956496 -0.033311862 4283321934
13.317842 -3.0525467 -0.044984438 4283387727
13.55096 -3.1469054 -0.080521479 4283387727
13.9231 -3.2755535 -0.13703331 4283453520
14.533023 -3.4635332 -0.22915539 4283519313
14.989191 -3.6177151 -0.29837453 4283519313
14.367999 4.7933416 -0.24230693 4284045657
13.950874 4.6119456 -0.17810225 4284440415
13.873509 4.5448055 -0.16573313 4284769380
13.940505 4.5251803 -0.17539991 4285032552
14.052156 4.519526 -0.19201314 4285164138
14.091594 4.4901352 -0.19752117 4285032552
14.216191 4.4873366 -0.21644552 4284703587
14.358529 4.4894104 -0.23795491 4284440415
14.44621 4.4737043 -0.250954 4284440415
14.423948 4.4236994 -0.24697036 4284440415
14.37024 4.3642612 -0.2381368 4284308829
14.221491 4.2765474 -0.21455592 4284506208
14.156552 4.2146935 -0.20399334 4284572001
13.98315 4.1212745 -0.17652519 4284506208
13.993644 4.0824761 -0.1778525 4284900966
13.825787 3.9919012 -0.15193766 4285493103
13.491422 3.8548284 -0.099938869 4285690482
13.672389 3.8654211 -0.1282353 4285295724
14.723173 2.8387012 -0.28665775 4285690482
14.525846 2.6232014 -0.26033983 4282269246
13.210718 2.3457587 -0.056008115 4282071867
12.050724 2.1031399 0.1239646 4282400832
10.690471 1.8310568 0.33228764 4283387727
9.8737068 1.658417 0.45577666 4284637794
9.7406588 1.6064078 0.47626984 4285229931
9.8108187 1.5890998 0.46624395 4285427310
9.8813858 1.5714998 0.45621496 4285361517
9.9059849 1.5459327 0.45289344 4285164138
9.9238243 1.5194048 0.45088264 4285361517
9.9343367 1.4916879 0.45001709 4285361517
9.8142862 1.4435121 0.46814016 4284835173
9.6263733 1.3858563 0.49641615 4284243036
9.5927267 1.3519458 0.50159997 4283848278
9.5944529 1.3234043 0.50157797 4283585106
9.5756674 1.2922001 0.50487912 4283519313
9.5529432 1.2607973 0.50900131 4283519313
9.5776415 1.2356341 0.50569433 4283453520
9.6714268 1.2192222 0.49178657 4283387727
9.6572971 1.1885679 0.49430624 4283519313
9.5947962 1.151915 0.50410551 4283848278
9.6044283 1.1245192 0.5030632 4283979864
9.6527481 1.1016458 0.4961282 4283848278
9.677351 1.075711 0.49275309 4283979864
9.5697489 1.0349606 0.50964421 4284111450
9.5272293 1.0018591 0.51653039 4284243036
9.5119772 0.97199279 0.51932055 4284243036
9.438756 0.93644303 0.53110027 4284243036
9.4090157 0.90514964 0.53582627 4284440415
9.4005289 0.87613189 0.53733367 4284703587
9.3576746 0.84429407 0.54434747 4284900966
9.2303915 0.80534196 0.56447583 4285032552
9.1460552 0.77088714 0.57798541 4284900966
8.9652748 0.7287907 0.60627574 4284703587
8.924901 0.69923323 0.6130119 4284572001
8.948123 0.67485714 0.60992754 4284703587
8.9049587 0.64541215 0.61705738 4284900966
8.8899574 0.61835057 0.61987895 4284900966
8.9583111 0.59690464 0.60971695 4284637794
8.9816103 0.57231671 0.60658407 4284572001
9.0097322 0.5479036 0.60267687 4284703587
9.0024099 0.52084529 0.60403389 4285098345
8.9000282 0.48875639 0.62017238 4285427310
8.9824944 0.46731454 0.60780573 4285295724
9.1246548 0.44800684 0.58602619 4284769380
9.2045698 0.42481822 0.57380223 4284308829
8.9600086 0.38631442 0.61154652 4283387727
8.9717913 0.36031461 0.60982251 4282335039
13.915605 0.51711726 -0.15627711 4283585106
12.203896 -0.93826413 0.10742407 4282598211
11.214632 -0.89480478 0.26007631 4282992969
10.814963 -0.8951965 0.32190868 4283979864
10.477885 -0.89840108 0.37390769 4284374622
10.289055 -0.91247618 0.40268618 4284900966
10.316915 -0.94560838 0.39805144 4285164138
9.8877068 -0.93496943 0.46383247 4285098345
9.9503403 -0.97037601 0.45368725 4284835173
10.049312 -1.0100303 0.43806243 4284572001
10.103456 -1.0455477 0.42931691 4284440415
10.039035 -1.0684937 0.43874943 4284374622
10.012241 -1.0950834 0.44222769 4284374622
9.9566317 -1.1183218 0.45020908 4284374622
9.9939222 -1.152137 0.44389471 4284374622
9.9391813 -1.1751136 0.45172128 4284374622
10.042877 -1.2173247 0.43519887 4284374622
10.121779 -1.2570374 0.42248586 4284308829
9.986124 -1.2698214 0.44308686 4284177243
9.963295 -1.2965449 0.44615802 4284045657
9.9092731 -1.3187895 0.45387754 4283979864
9.9861994 -1.3588212 0.44146803 4284045657
10.033392 -1.3951999 0.43371212 4284111450
10.019988 -1.4233671 0.4355402 4284243036
10.202343 -1.4803097 0.40734279 4284637794
10.207007 -1.5113041 0.40602282 4284703587
10.142291 -1.5316767 0.41531861 4284440415
10.087843 -1.5532297 0.42297727 4284440415
10.168162 -1.5960177 0.41006121 4284440415
10.273988 -1.6434547 0.3932609 4284308829
10.508526 -1.7130491 0.35704279 4284111450
10.64793 -1.7679371 0.33528721 4283914071
10.725175 -1.8129851 0.32302392 4283782485
10.799663 -1.8579949 0.31115276 4283716692
10.989293 -1.923866 0.28163722 4283848278
11.126104 -1.9812318 0.2600446 4283979864
11.256421 -2.0385036 0.2398466 4283650899
11.360994 -2.0916522 0.22343546 4283321934
11.497705 -2.1513987 0.20193577 4283387727
11.6081 -2.2068834 0.18442792 4283387727
11.645665 -2.2488716 0.17816165 4283453520
11.898379 -2.3337486 0.13897337 4283519313
12.048923 -2.3995743 0.11541867 4283585106
12.136259 -2.4534614 0.10164887 4283453520
12.2179 -2.506608 0.088609792 4283387727
12.283794 -2.5569403 0.077987105 4283321934
12.270701 -2.5909228 0.079607613 4283256141
12.31628 -2.6374893 0.072209284 4283190348
12.38854 -2.6901443 0.060669992 4283124555
12.471835 -2.7456772 0.047427002 4283058762
12.579438 -2.8071117 0.030335382 4283124555
12.710351 -2.874542 0.0097331051 4283190348
12.807499 -2.9350011 -0.0056178123 4283190348
12.997641 -3.0177639 -0.03529001 4283124555
13.206388 -3.1060474 -0.067865044 4283124555
13.589107 -3.2373874 -0.12698141 4283058762
14.044701 -3.3886023 -0.19749351 4283124555
14.462392 -3.5332158 -0.2622146 4283190348
14.665542 -3.6268926 -0.29413992 4283124555
14.949039 -3.7420285 -0.33837757 4283190348
14.36701 4.8790374 -0.28562781 4283650899
13.967926 4.7012658 -0.2228993 4284045657
13.826206 4.6121035 -0.20016421 4284374622
13.809201 4.5651903 -0.1968323 4284572001
13.818568 4.52701 -0.19772609 4284637794
13.898568 4.5116763 -0.20992355 4284900966
14.08891 4.5314112 -0.23951523 4284769380
14.252874 4.5416336 -0.264835 4284506208
14.355124 4.5314617 -0.28018045 4284308829
14.475139 4.5262165 -0.29839623 4284111450
14.57143 4.512877 -0.31292349 4284177243
14.585485 4.4736609 -0.31459308 4284177243
14.520444 4.4103246 -0.30375195 4284243036
14.368255 4.3211374 -0.2791723 4284440415
14.375069 4.2802401 -0.27973822 4284703587
14.514488 4.2784123 -0.30128488 4285164138
14.379061 4.1954718 -0.27946115 4285493103
14.954566 4.3188591 -0.36984468 4285164138
13.691379 2.4318733 -0.17060776 4282269246
11.731914 2.0467019 0.13750455 4283124555
9.9039278 1.6931162 0.42130759 4284703587
9.6969862 1.6281849 0.45394865 4285229931
9.7063942 1.6010065 0.45314834 4285427310
9.7600861 1.5811472 0.44552729 4285558896
9.8335571 1.5641445 0.43477744 4285493103
9.878088 1.5418293 0.42818978 4285229931
9.8657331 1.5106436 0.43076754 4285164138
9.7142925 1.4579608 0.45465839 4284703587
9.5542488 1.4041934 0.47911856 4284243036
9.5281105 1.3717023 0.48344195 4284111450
9.4804354 1.3362632 0.49112144 4283979864
9.5198717 1.3133391 0.48516306 4283650899
9.4962921 1.2816628 0.48921779 4283453520
9.4544725 1.247932 0.4963803 4283519313
9.4959593 1.2252641 0.49034569 4283453520
9.4849405 1.1954983 0.49242356 4283650899
9.4337034 1.1606002 0.50065482 4283979864
9.4805784 1.1382356 0.49370736 4284045657
9.4712439 1.1089166 0.49559507 4283848278
9.565053 1.0917181 0.4813489 4283914071
9.5265141 1.0587535 0.48767778 4284111450
9.5228424 1.0300714 0.48870012 4284177243
9.4663563 0.99564528 0.49792114 4284177243
9.4102135 0.96166211 0.50713491 4284177243
9.3919392 0.93201327 0.5105139 4284243036
9.3623486 0.90086359 0.51528835 4284506208
9.3206644 0.8688609 0.52205384 4284703587
9.2337332 0.8331883 0.53610331 4284835173
9.1836233 0.80151987 0.54448497 4284900966
9.0306759 0.76130098 0.56902587 4284900966
8.9101667 0.72456443 0.58836699 4284769380
8.8798046 0.69598812 0.59363925 4284637794
8.8710575 0.66929555 0.59550494 4284703587
8.82868 0.64015615 0.60263216 4284835173
8.8312664 0.61456335 0.60270584 4284769380
8.8890467 0.59258246 0.59399062 4284572001
8.8921232 0.56685835 0.5939405 4284506208
8.8706493 0.53964448 0.59774792 4284440415
8.7771378 0.50800914 0.61273634 4284703587
8.7764463 0.48225796 0.6131323 4285032552
8.8781834 0.46222013 0.59746957 4285032552
9.0484028 0.44452798 0.57078922 4284572001
9.0671768 0.4184089 0.5678522 4283979864
8.8903465 0.38344494 0.59570616 4283058762
8.9599457 0.3602457 0.58489245 4282137660
12.796102 -0.9818424 -0.024054203 4283321934
10.992633 -0.87736046 0.26176327 4282795590
10.396099 -0.86033505 0.3556214 4283387727
10.08258 -0.86435723 0.40494847 4284045657
10.003592 -0.8871575 0.41704983 4284506208
10.04676 -0.92091149 0.40997609 4284966759
9.7623854 -0.92339802 0.45432094 4285229931
9.6638422 -0.94240499 0.46928814 4285098345
9.8485203 -0.98992825 0.43989378 4284703587
9.9222832 -1.0269605 0.42796418 4284440415
9.9081526 -1.0548283 0.42973614 4284374622
9.8754606 -1.0803351 0.43421331 4284308829
9.7495251 -1.0951298 0.45341602 4284374622
9.7120657 -1.1195563 0.458729 4284506208
9.7088003 -1.147828 0.45861846 4284506208
9.8611012 -1.1953425 0.43418157 4284506208
10.017938 -1.2443323 0.4090133 4284374622
9.8846912 -1.2571564 0.42970037 4284045657
9.8090544 -1.2765939 0.44113651 4283848278
9.8050718 -1.3051244 0.44117698 4283914071
9.7402258 -1.3252599 0.45078513 4284243036
9.8333302 -1.3673663 0.4356876 4284243036
9.7431831 -1.3837568 0.44946557 4284045657
9.5794344 -1.3886348 0.47460765 4283979864
9.6579409 -1.4288979 0.46176142 4284045657
9.741641 -1.4703885 0.44804752 4284111450
9.8062563 -1.509423 0.43734014 4284177243
9.9153414 -1.5559679 0.41971448 4284243036
10.070063 -1.6106111 0.39499182 4284177243
10.387706 -1.6933721 0.34512371 4284045657
10.514664 -1.7457796 0.32487193 4283914071
10.534643 -1.7806271 0.3213492 4283782485
10.667378 -1.8352709 0.30023158 4283716692
10.68549 -1.8702848 0.29688516 4283585106
10.797838 -1.9223443 0.27873242 4283650899
11.065853 -2.0038714 0.23663275 4283453520
11.021419 -2.0286143 0.24307546 4283519313
11.071832 -2.0710096 0.23464699 4283650899
11.233902 -2.1352088 0.20882586 4283585106
11.387565 -2.1988297 0.18445724 4283519313
11.609566 -2.2768576 0.14932826 4283519313
11.846489 -2.359231 0.11189343 4283453520
11.957808 -2.4174151 0.094136931 4283321934
11.998331 -2.4615102 0.087290101 4283256141
12.020356 -2.5019646 0.083332546 4283256141
11.999287 -2.5334702 0.086271442 4283190348
12.032858 -2.576638 0.080639504 4283058762
12.087111 -2.6244969 0.07170479 4283058762
12.167474 -2.6784775 0.058684181 4282992969
12.187881 -2.7193801 0.054910641 4283058762
12.309517 -2.7835081 0.035349254 4283058762
12.402942 -2.8419023 0.020290282 4283058762
12.562157 -2.9162056 -0.005133003 4282927176
12.670496 -2.9793906 -0.022639133 4282861383
12.758158 -3.0383599 -0.036737248 4282729797
12.867686 -3.1030297 -0.054513671 4282664004
13.031776 -3.1817138 -0.080938876 4282664004
13.175066 -3.2561862 -0.10415508 4282729797
13.556562 -3.391537 -0.16458133 4282729797
13.755847 -3.4827087 -0.1965728 4282729797
14.131298 -3.6204698 -0.25617552 4282729797
14.273409 -3.6995666 -0.27940279 4282729797
14.5383 -3.8118815 -0.32189465 4282729797
14.959622 5.2153125 -0.42378709 4283519313
14.278726 4.9344029 -0.31518734 4283782485
13.717853 4.6988406 -0.22564054 4284111450
13.6257 4.6265078 -0.21025652 4284177243
13.550183 4.5603514 -0.19751385 4284243036
13.535019 4.5148425 -0.19440173 4284374622
13.722758 4.5368071 -0.22340764 4284440415
13.735815 4.5000615 -0.22502935 4284308829
13.874025 4.5038109 -0.24706355 4284308829
14.189914 4.5641522 -0.29718831 4284506208
14.425031 4.596817 -0.3343569 4284440415
14.552967 4.5942588 -0.35413653 4284243036
14.764498 4.617064 -0.38747004 4284308829
14.834706 4.5948496 -0.39791673 4284177243
14.831912 4.5497231 -0.39681229 4284177243
14.937894 4.5376663 -0.41326663 4284506208
14.884073 4.4324045 -0.40349743 4285164138
14.810055 4.3661118 -0.39105859 4285229931
13.583247 2.4122818 -0.19456759 4282992969
10.373922 1.8062083 0.31744707 4284308829
9.7192469 1.6611907 0.42145637 4285361517
9.6537218 1.6211724 0.43251628 4285427310
9.6835423 1.597553 0.42842898 4285427310
9.7322683 1.5769612 0.42143166 4285427310
9.8110476 1.5608579 0.40954131 4285295724
9.803791 1.5302688 0.41089836 4284966759
9.6845665 1.4824061 0.43020242 4284637794
9.4651709 1.4195783 0.46502635 4284111450
9.3697643 1.3766824 0.48020324 4283782485
9.3836546 1.3507659 0.47838935 4283848278
9.4055099 1.3258698 0.47525653 4284045657
9.4076395 1.2979957 0.47518694 4283782485
9.3673687 1.2643309 0.48193219 4283585106
9.3484621 1.234061 0.4855395 4283585106
9.3919487 1.2118732 0.47894824 4283585106
9.4127932 1.1864954 0.4759447 4283782485
9.3232365 1.1469817 0.49042076 4283979864
9.3362179 1.1208153 0.48874959 4283782485
9.3842983 1.0988747 0.48155662 4283782485
9.4243059 1.0755266 0.47548601 4284111450
9.4390545 1.0491649 0.47351921 4284177243
9.4092808 1.017848 0.47869915 4283979864
9.3607073 0.98456818 0.48677906 4284111450
9.2686911 0.9470942 0.50184155 4284308829
9.2649832 0.91935641 0.50294006 4284374622
9.2226019 0.88735646 0.50986642 4284637794
9.2055931 0.85819793 0.51285082 4284835173
9.1250277 0.82347679 0.52614349 4284769380
9.0018044 0.78558308 0.5463571 4284703587
8.9264441 0.75263041 0.55893219 4284769380
8.8522291 0.72011358 0.57123601 4284703587
8.7856464 0.68881565 0.58239418 4284637794
8.7424326 0.65977144 0.58981007 4284703587
8.7029066 0.63125002 0.59660274 4284769380
8.6465406 0.60180014 0.60608697 4284572001
8.7685108 0.58478439 0.58690512 4284506208
8.8741198 0.56607324 0.57036442 4284440415
8.8568974 0.53916055 0.57352859 4284374622
8.7161951 0.50479066 0.59636557 4284703587
8.7414751 0.48071954 0.59259701 4285032552
8.8988047 0.46369973 0.56767005 4284966759
9.0579252 0.44529557 0.54221243 4284506208
9.0860271 0.41937128 0.53763765 4283782485
8.9259892 0.38523746 0.56337154 4282795590
8.9878893 0.36175585 0.55361861 4282203453
10.986939 -0.87743098 0.23008451 4282466625
10.161018 -0.84100765 0.36245042 4283058762
9.9267244 -0.85120058 0.40001598 4283848278
9.8018169 -0.86942524 0.41974655 4284308829
9.7451038 -0.89325488 0.42853823 4284703587
9.6034555 -0.90857935 0.4509145 4285098345
9.5248594 -0.92912209 0.46303132 4285164138
9.6427851 -0.96927869 0.4436745 4284835173
9.7316847 -1.0073577 0.42917117 4284572001
9.8135529 -1.045092 0.41568729 4284308829
9.7636757 -1.0683806 0.42301467 4284308829
9.5488167 -1.0726932 0.45684794 4284506208
9.5656071 -1.1028551 0.45359823 4284637794
9.5991583 -1.1350952 0.44761491 4284572001
9.6076756 -1.1645924 0.44574839 4284637794
9.5940838 -1.1912169 0.44727036 4284572001
9.5561075 -1.2150831 0.45314181 4284111450
9.5713873 -1.245582 0.45031658 4283914071
9.6528492 -1.2849643 0.4367466 4283979864
9.6116781 -1.3079112 0.44278243 4284111450
9.6684971 -1.3444823 0.43318811 4284177243
9.6019955 -1.3637531 0.44343624 4283979864
9.4268646 -1.3665211 0.47089508 4283848278
9.4634142 -1.399964 0.4644573 4283914071
9.5364208 -1.439201 0.45217481 4283979864
9.6121025 -1.4793506 0.4395217 4284111450
9.7563372 -1.5309312 0.41599488 4284177243
9.9177217 -1.5861857 0.38976252 4284177243
9.9745083 -1.6252429 0.38036162 4284308829
10.065891 -1.6702733 0.36520287 4284308829
10.21565 -1.7262279 0.34122366 4283979864
10.336156 -1.7777966 0.32167315 4283848278
10.5485 -1.8463348 0.28744808 4283650899
10.710896 -1.9070421 0.26104885 4283585106
10.647223 -1.9273288 0.27070788 4283716692
10.520061 -1.9354241 0.29049179 4283914071
10.745471 -2.0094559 0.25407547 4283979864
10.942722 -2.0794883 0.22223763 4283914071
11.138275 -2.1505113 0.19088304 4283650899
11.249464 -2.2058389 0.17275064 4283453520
11.49116 -2.2881284 0.13389823 4283256141
11.654531 -2.355864 0.10750733 4283124555
11.767969 -2.4141774 0.088977762 4283190348
11.714412 -2.4380591 0.097003832 4283124555
11.751487 -2.4810486 0.090774365 4283058762
11.77455 -2.5212274 0.086765967 4283058762
11.813158 -2.5648847 0.080171891 4282992969
11.8882 -2.6168575 0.067760825 4282992969
11.983726 -2.6738195 0.051963776 4282992969
12.016267 -2.7170188 0.046239112 4282992969
12.11401 -2.7755299 0.03021873 4282992969
12.261317 -2.8461776 0.006217856 4282927176
12.360509 -2.9062879 -0.010154027 4282861383
12.391818 -2.9508107 -0.015520282 4282729797
12.495154 -3.0128782 -0.032625403 4282532418
12.594891 -3.0746095 -0.049294773 4282466625
12.71375 -3.1416829 -0.069050513 4282400832
12.832928 -3.2095628 -0.088839464 4282335039
13.03065 -3.2981629 -0.12118139 4282269246
13.228861 -3.3880336 -0.15368795 4282269246
13.463852 -3.4886613 -0.19211704 4282269246
13.765959 -3.6083682 -0.24132659 4282400832
14.177086 -3.7589242 -0.30802733 4282400832
14.66611 -3.9328966 -0.38728753 4282466625
14.687968 5.1642714 -0.42467561 4283782485
14.024234 4.8881273 -0.31681535 4284111450
13.693669 4.7316213 -0.2625986 4284243036
13.55746 4.6439676 -0.23973513 4284308829
13.470291 4.5738168 -0.22489098 4284308829
13.377333 4.5022316 -0.20911936 4284243036
13.36433 4.4579763 -0.20630193 4284243036
13.544779 4.4779997 -0.23480505 4284440415
13.521804 4.4299464 -0.23062575 4284506208
13.908059 4.5151467 -0.2932882 4284243036
14.280882 4.5937586 -0.35362473 4284572001
14.538445 4.6333523 -0.39509794 4284506208
14.67188 4.6322203 -0.41612038 4284308829
14.910741 4.6632524 -0.45452365 4284440415
10.647176 1.8858962 0.24147812 4284177243
9.7979689 1.7044716 0.37989154 4285164138
9.6623611 1.6518098 0.40243793 4285427310
9.6201897 1.6158838 0.40981314 4285295724
9.5579901 1.5767894 0.42035034 4285098345
9.5041819 1.5395023 0.42958495 4284900966
9.4304075 1.4988301 0.44149849 4284572001
9.4054747 1.4666191 0.4458099 4284177243
9.3074093 1.4232345 0.46205184 4283848278
9.2698269 1.3897239 0.46853971 4283585106
9.1741829 1.3476244 0.48431486 4283453520
9.2327471 1.3288877 0.47524279 4283650899
9.3420095 1.3170776 0.45792294 4283979864
9.3363037 1.2883884 0.45920444 4283848278
9.3138475 1.2574003 0.46317476 4283585106
9.2854538 1.2260063 0.4683533 4283519313
9.3386745 1.2051347 0.45988992 4283716692
9.414876 1.1870852 0.44785804 4283848278
9.2185478 1.1340697 0.47987977 4283782485
9.228405 1.1078577 0.47868729 4283716692
9.2696886 1.0854783 0.47248459 4283848278
9.327426 1.0645766 0.46342695 4284111450
9.3635845 1.0409727 0.4579469 4284045657
9.3771019 1.0146871 0.45616886 4283979864
9.2700577 0.97508985 0.47380641 4284177243
9.0829649 0.92785162 0.50455093 4284440415
9.0282469 0.8954308 0.51391792 4284572001
9.0978489 0.87532401 0.50283009 4284703587
9.11094 0.84951365 0.50101894 4284769380
8.9832449 0.81069893 0.52221304 4284637794
8.7944756 0.76731622 0.55344343 4284572001
8.7291527 0.73584336 0.56459129 4284572001
8.6885052 0.70683068 0.57169801 4284572001
8.64816 0.67816889 0.57878029 4284637794
8.6201715 0.65076309 0.58385134 4284769380
8.6349497 0.62662786 0.5818696 4284769380
8.5372677 0.59444815 0.59826154 4284440415
8.7227011 0.58207387 0.56831908 4284440415
8.7539539 0.55859256 0.56356853 4284506208
8.6884708 0.52897745 0.57463259 4284637794
8.5905418 0.49772844 0.59092778 4284966759
8.7093611 0.47932816 0.57179177 4285164138
8.9077311 0.46451458 0.53963614 4284966759
9.1131086 0.44830441 0.50608689 4284374622
9.1865082 0.42420149 0.49395984 4283519313
9.018487 0.38954675 0.52151841 4282598211
8.9775772 0.36150795 0.52837914 4282269246
11.362013 -0.90774214 0.13583395 4282729797
9.9823322 -0.82651603 0.36153728 4282664004
9.7789736 -0.83871353 0.3946605 4283519313
9.6706495 -0.85808253 0.41213909 4284177243
9.5584745 -0.87631774 0.43013963 4284572001
9.4347687 -0.89277178 0.45000178 4284966759
9.440855 -0.92131644 0.44864485 4285295724
9.4604158 -0.95107639 0.44491747 4285098345
9.6377668 -0.99795383 0.41577002 4284637794
9.701251 -1.0334579 0.40508643 4284308829
9.6248131 -1.0534269 0.41689059 4284374622
9.4181557 -1.0582777 0.45007133 4284572001
9.4249916 -1.0868632 0.44839695 4284703587
9.3699884 -1.1080395 0.45676199 4284572001
9.4713125 -1.1482925 0.43977696 4284769380
9.4999895 -1.1798381 0.43447322 4284835173
9.4016237 -1.1955116 0.45020095 4284440415
9.4088564 -1.2244617 0.44863144 4284111450
9.5262566 -1.268255 0.42902076 4284111450
9.5396891 -1.2983972 0.42633995 4284111450
9.5705156 -1.3310792 0.4208197 4284111450
9.5268469 -1.3533214 0.42753905 4284045657
9.350791 -1.3557177 0.4556846 4283979864
9.3156385 -1.3780999 0.4607515 4284045657
9.4209766 -1.4218445 0.4430027 4284111450
9.4671268 -1.4569969 0.43489644 4284243036
9.6016502 -1.5065802 0.41250646 4284308829
9.6903257 -1.5495596 0.39759904 4284440415
9.579381 -1.56015 0.41521192 4284900966
9.5943384 -1.591015 0.41205242 4284966759
9.7542086 -1.6473117 0.38599569 4284572001
9.9095497 -1.7035643 0.36041456 4284177243
10.026196 -1.7538176 0.34102875 4284111450
9.9776287 -1.7748291 0.34825581 4284374622
10.037305 -1.815689 0.33830309 4284243036
10.415174 -1.9162657 0.27683258 4283979864
10.610596 -1.9842767 0.24457221 4283979864
10.797677 -2.051928 0.2137688 4283914071
10.916479 -2.1075661 0.19433115 4283585106
10.970254 -2.1508343 0.18516764 4283321934
11.202622 -2.2304337 0.14713806 4283124555
11.433963 -2.3111885 0.10924234 4282927176
11.465986 -2.3519609 0.10356936 4282927176
11.507506 -2.3949482 0.096392512 4282992969
11.469798 -2.4213977 0.10222402 4282992969
11.542176 -2.4714386 0.090233535 4283058762
11.560502 -2.5099473 0.086814061 4282927176
11.635089 -2.5610514 0.074245781 4282927176
11.733289 -2.6178603 0.057748009 4282992969
11.81659 -2.6718893 0.04371142 4282992969
11.850651 -2.7150991 0.037760492 4282927176
11.999527 -2.7853265 0.013077455 4282992969
12.020391 -2.826088 0.009132483 4282927176
12.133759 -2.8892529 -0.0096916435 4282729797
12.118888 -2.9218163 -0.0079239644 4282598211
12.312748 -3.0055714 -0.040152315 4282400832
12.410853 -3.066632 -0.056879587 4282335039
12.435788 -3.1098654 -0.06170474 4282335039
12.634912 -3.1976299 -0.094858885 4282335039
12.90551 -3.3049798 -0.13970318 4282269246
13.087147 -3.3907166 -0.17016326 4282269246
13.396466 -3.5111933 -0.22144368 4282269246
13.766267 -3.6496084 -0.28266516 4282269246
14.210495 -3.8102465 -0.35613629 4282269246
14.585391 -3.9545386 -0.41855022 4282335039
14.463463 5.1283526 -0.4317579 4284111450
14.114866 4.9621415 -0.37369284 4284177243
13.858478 4.8303914 -0.33054036 4284177243
13.597064 4.6983924 -0.28667364 4284177243
13.4131 4.5945864 -0.25559652 4284177243
13.303153 4.517097 -0.23676789 4284177243
13.235726 4.4546618 -0.22488663 4284440415
13.219898 4.4098945 -0.22155946 4284440415
13.319913 4.4035935 -0.23752226 4284703587
13.360611 4.3772116 -0.24364829 4284835173
13.953444 4.5301871 -0.34161878 4284506208
14.334377 4.611228 -0.40456113 4284506208
14.677549 4.6780477 -0.46094397 4284506208
14.815557 4.6779943 -0.48303318 4284308829
11.742444 2.1167626 0.027544433 4284308829
9.9190168 1.7556995 0.3307046 4285164138
9.7516928 1.696785 0.35902739 4285427310
9.6660585 1.6529552 0.37373567 4285427310
9.5669346 1.6072483 0.39055794 4285229931
9.4398718 1.5572048 0.41170278 4284835173
9.2592468 1.4989681 0.44154969 4284308829
9.1790018 1.4579198 0.45470065 4283848278
9.1439753 1.4248871 0.46079239 4283650899
9.1681643 1.4016489 0.45749235 4283519313
9.1403141 1.3700823 0.4625228 4283453520
9.0974951 1.3364204 0.46999937 4283453520
9.0805435 1.3067983 0.47318333 4283585106
9.1694555 1.2925638 0.45893043 4283716692
9.2077847 1.2707034 0.45305216 4283716692
9.1661949 1.2375567 0.46033078 4283453520
9.1707096 1.2110201 0.46011668 4283387727
9.0923986 1.1727947 0.47290555 4283979864
9.0698376 1.14258 0.47681597 4284440415
9.0546103 1.1136283 0.47969362 4283914071
9.1165667 1.0943589 0.4698863 4283782485
9.1609249 1.072776 0.46311408 4283782485
9.1191673 1.0406728 0.47041991 4283848278
9.2769642 1.0314851 0.44463667 4283914071
9.2386665 0.9995501 0.45125711 4284111450
9.0342817 0.94986731 0.48533699 4284440415
8.9300146 0.91214192 0.50301117 4284637794
8.897357 0.88245875 0.50889879 4284769380
9.0315218 0.86910856 0.48687842 4284703587
8.9559631 0.8349911 0.49970767 4284637794
8.8238745 0.79626912 0.52202958 4284572001
8.664711 0.75599575 0.5488897 4284506208
8.6371574 0.72819823 0.55395859 4284506208
8.5944004 0.69934946 0.56156117 4284506208
8.5655155 0.67191124 0.56685507 4284572001
8.5644703 0.64688027 0.56753677 4284637794
8.4862118 0.61601669 0.58097762 4284572001
8.5114927 0.59305584 0.57719576 4284506208
8.6095839 0.57475501 0.56119239 4284637794
8.5673428 0.54668766 0.56850636 4284900966
8.4164324 0.51226819 0.59395802 4285229931
8.4813585 0.49165812 0.58350414 4285361517
8.7066603 0.47951299 0.54624438 4285229931
8.9132843 0.46504423 0.51206517 4284900966
9.1996117 0.45281154 0.46438268 4284243036
9.3157749 0.43021396 0.44482213 4283321934
9.1598349 0.39597866 0.47095498 4282335039
9.0613499 0.36487129 0.48744372 4282466625
9.8603563 -0.81683636 0.35228243 4282335039
9.5408497 -0.81832308 0.40518659 4283190348
9.4586735 -0.83941108 0.41870597 4283914071
9.344532 -0.85679591 0.43736038 4284374622
9.1996031 -0.87055606 0.46112457 4284835173
9.2595415 -0.90388906 0.45093089 4285361517
9.2430344 -0.92940044 0.45313877 4285493103
9.4687796 -0.98063427 0.41536564 4284966759
9.5579357 -1.0184231 0.40025285 4284440415
9.4721556 -1.0369385 0.41387203 4284440415
9.287796 -1.0439022 0.44401395 4284506208
9.2277594 -1.0642931 0.45346665 4284572001
9.2007837 -1.0882461 0.45736596 4284506208
9.0844803 -1.1011366 0.47616148 4284440415
9.1603222 -1.1375172 0.46300265 4284506208
9.3041973 -1.183321 0.43871388 4284440415
9.298521 -1.2102374 0.43924394 4284374622
9.4272604 -1.2552553 0.41743633 4284243036
9.3994179 -1.279412 0.4215906 4284243036
9.35748 -1.3014244 0.42808273 4284374622
9.2706442 -1.3167597 0.44205636 4284308829
9.1232567 -1.3226006 0.46598902 4284243036
9.1401806 -1.3521128 0.46253815 4284243036
9.2178917 -1.3910488 0.44900998 4284308829
9.2731228 -1.4269985 0.43926045 4284374622
9.4668541 -1.4854608 0.4067077 4284374622
9.4520273 -1.5112344 0.4086746 4284703587
9.5035191 -1.5479606 0.39975071 4285032552
9.557065 -1.585125 0.39022031 4284966759
9.6093225 -1.6227558 0.38134378 4284637794
9.6660643 -1.6613188 0.37152401 4284440415
9.683238 -1.6931889 0.36822179 4284835173
9.7734556 -1.73823 0.35270181 4284966759
9.9443426 -1.7990092 0.32438004 4284374622
10.32063 -1.8990309 0.26205859 4283979864
10.544375 -1.972132 0.22455887 4283979864
10.631597 -2.02033 0.20963086 4283914071
10.669961 -2.0597661 0.203135 4283650899
10.607879 -2.0792649 0.21287496 4283519313
10.564885 -2.1022828 0.21952379 4283585106
10.661499 -2.1535497 0.20308873 4283716692
10.860503 -2.2266688 0.16981822 4283519313
11.133912 -2.3167434 0.12444824 4283387727
11.216101 -2.3676918 0.11068307 4283190348
11.33149 -2.4263511 0.09150371 4283058762
11.393905 -2.4738772 0.080738969 4282927176
11.470905 -2.5250008 0.067532957 4282861383
11.577551 -2.5832224 0.04936558 4282861383
11.640876 -2.6322303 0.038397454 4282927176
11.679432 -2.6759679 0.031641666 4282927176
11.708045 -2.7175746 0.026466504 4282927176
11.786557 -2.7711024 0.0129057 4282927176
11.787433 -2.8065255 0.012272811 4282927176
11.823746 -2.8504772 0.0056220205 4282795590
11.901314 -2.9047484 -0.0079398919 4282729797
12.020287 -2.9697759 -0.028386839 4282598211
12.112375 -3.0287657 -0.044356331 4282532418
13.787749 -3.6965196 -0.32760113 4282269246
14.287213 -3.873513 -0.4117578 4282203453
14.695333 -4.0282435 -0.4809432 4282269246
14.959885 5.3943057 -0.55955738 4283979864
14.440595 5.1634355 -0.47134885 4284374622
14.184456 5.0292168 -0.42758027 4284308829
13.985566 4.9167337 -0.39342591 4284177243
13.766889 4.7986155 -0.35571975 4284045657
13.522189 4.6726971 -0.31386301 4284111450
13.326607 4.5651088 -0.28032398 4284243036
13.202274 4.4829679 -0.25878266 4284308829
13.13967 4.4224663 -0.2475225 4284835173
13.135455 4.3818812 -0.24610212 4284769380
13.148112 4.3466864 -0.2480845 4284374622
13.273063 4.3484654 -0.26864484 4284440415
13.909637 4.5161967 -0.3752012 4284440415
14.324887 4.6084909 -0.44497013 4284374622
14.802394 4.7181869 -0.52525699 4284637794
11.414384 2.0911322 0.047519099 4284308829
10.151142 1.827741 0.26187789 4285164138
9.8529291 1.744366 0.3129918 4285493103
9.7539129 1.6976924 0.33029214 4285493103
9.6544094 1.6514473 0.34756851 4285493103
9.5667982 1.6076567 0.36263925 4285361517
9.4174891 1.5537486 0.38774186 4284769380
9.2169313 1.4922047 0.42137966 4284243036
9.1626129 1.4556234 0.43057409 4283914071
9.0820055 1.4153363 0.44435206 4283914071
9.075017 1.3873739 0.44614765 4283979864
9.018981 1.3517462 0.45595771 4283848278
8.9878922 1.3202038 0.46158099 4283650899
9.0372477 1.3007616 0.45376822 4283519313
9.0140257 1.2704712 0.4580425 4283585106
9.0467892 1.2483469 0.45302588 4283519313
9.0797853 1.2260616 0.44795895 4283453520
9.0348873 1.1930656 0.45598191 4283387727
9.0367117 1.1657913 0.45549592 4284045657
8.9964542 1.1334102 0.46240008 4284637794
8.8327923 1.0860101 0.490329 4284243036
8.7863331 1.0540711 0.49858055 4284308829
8.7510357 1.024006 0.50515068 4284243036
8.8428097 1.0088031 0.49012634 4284111450
8.6750221 0.96286154 0.51835829 4284572001
8.48633 0.91599041 0.55042732 4285098345
8.588726 0.90203774 0.53368419 4284900966
8.7636671 0.89508885 0.50468528 4284769380
8.8014774 0.87313426 0.49880421 4284835173
8.9284096 0.85924309 0.47751263 4284572001
8.7431374 0.81488663 0.50906235 4284243036
8.6159992 0.77726853 0.53094441 4284308829
8.572998 0.74803793 0.5386467 4284506208
8.4987822 0.71651632 0.55169964 4284703587
8.4614973 0.68859601 0.55852443 4284572001
8.4387493 0.66208833 0.56287396 4284572001
8.4244261 0.63645083 0.56581277 4284572001
8.4251585 0.61192173 0.56612188 4284506208
8.4489002 0.58903754 0.56251007 4284572001
8.4438477 0.56375688 0.56361103 4284900966
8.3434639 0.53228265 0.58084637 4285493103
8.3241005 0.50688875 0.58452433 4285558896
8.4378452 0.48946676 0.56559569 4285558896
8.6838522 0.47848627 0.52408481 4285164138
8.9555664 0.46740291 0.47818345 4284637794
9.351203 0.46041644 0.41105878 4284111450
9.5246506 0.44003209 0.38142169 4283124555
9.3613501 0.40507892 0.40933591 4282203453
9.3261919 0.37532705 0.41518164 4282992969
14.916872 -0.56557316 -0.53626072 4284572001
14.901767 -0.60853994 -0.53410482 4284440415
14.93364 -0.65352255 -0.53997076 4284308829
9.7877502 -0.81108558 0.33524463 4282466625
9.3480635 -0.80194932 0.40950739 4282729797
9.2217827 -0.81836724 0.43066657 4283387727
9.1940746 -0.84317255 0.43510517 4284111450
9.1754961 -0.86874086 0.43802366 4284703587
9.1618986 -0.89475 0.44013205 4285295724
9.1168509 -0.91706175 0.44724372 4285558896
9.0985022 -0.94203824 0.44991475 4285164138
9.1405916 -0.97345108 0.44235539 4284703587
9.102479 -0.99616951 0.44831264 4284637794
9.1042681 -1.0234489 0.44770122 4284572001
9.0464468 -1.0436118 0.45703197 4284506208
9.0429344 -1.0698218 0.45705092 4284440415
8.959837 -1.0862721 0.47055429 4284308829
8.937747 -1.1099153 0.4737238 4284243036
9.0775261 -1.1544058 0.44959721 4284374622
9.1945982 -1.196893 0.42944869 4284440415
9.3291664 -1.2423912 0.4062869 4284440415
9.1062241 -1.2392567 0.44344577 4284572001
8.9687014 -1.2469578 0.46627721 4284769380
8.9829359 -1.2756793 0.46344039 4284572001
8.9590807 -1.2988521 0.46699429 4284374622
8.990139 -1.3299979 0.46112859 4284177243
9.1045513 -1.3740861 0.44116884 4284243036
9.1778469 -1.4125149 0.42821977 4284308829
9.3104343 -1.4609642 0.40541852 4284440415
9.386384 -1.5010024 0.39214563 4284637794
9.3867407 -1.528986 0.39158952 4284769380
9.4945498 -1.5749874 0.37283632 4284835173
9.4827557 -1.6013502 0.37447223 4284637794
9.4934359 -1.6314918 0.37223443 4284374622
9.5617867 -1.6719854 0.36035618 4284572001
9.5936003 -1.7061149 0.35439253 4284637794
9.7881069 -1.7706525 0.32153717 4284308829
9.9793291 -1.8355986 0.28905833 4284111450
10.091529 -1.8865793 0.26968223 4284308829
10.183244 -1.9343027 0.25376266 4284308829
10.24827 -1.9776322 0.2427022 4284045657
10.199966 -1.9985837 0.25029936 4283848278
10.265427 -2.0423059 0.23897816 4283848278
10.420072 -2.1045413 0.21251445 4284111450
10.642461 -2.1818206 0.17477009 4284111450
10.889535 -2.2657285 0.13304003 4283782485
10.948626 -2.3110073 0.12289807 4283453520
11.101927 -2.377182 0.097181529 4283190348
11.248661 -2.4425037 0.072064005 4282927176
11.328487 -2.4937973 0.058130685 4282861383
11.337012 -2.5295041 0.056165807 4282861383
11.4341 -2.5854802 0.03932064 4282861383
11.470241 -2.6280808 0.032934304 4282795590
11.515155 -2.6728911 0.024970179 4282795590
11.587495 -2.7243717 0.012217869 4282795590
11.595094 -2.7607796 0.010411812 4282795590
11.64891 -2.8083937 0.00069875258 4282861383
11.679478 -2.8505852 -0.0051562828 4282795590
11.824087 -2.9213219 -0.030273441 4282729797
11.939118 -2.9855013 -0.050369263 4282664004
12.03584 -3.045682 -0.067427889 4282598211
13.035805 -3.455421 -0.23975389 4282532418
13.39309 -3.5904245 -0.30118313 4282400832
13.913642 -3.7719812 -0.39038458 4282335039
14.435504 -3.9569426 -0.47997266 4282269246
14.876417 -4.122406 -0.55605513 4282137660
14.926963 5.3826456 -0.5978204 4284111450
14.433796 5.161232 -0.5125649 4284111450
14.180411 5.0279889 -0.46856913 4284177243
13.948634 4.9039078 -0.42822444 4284111450
13.708539 4.7784514 -0.38610706 4284045657
13.483005 4.6593657 -0.34677771 4283979864
13.284158 4.5507779 -0.31209245 4284177243
13.155669 4.4673657 -0.28943676 4284374622
13.075038 4.4008965 -0.27496296 4284703587
13.041783 4.3507376 -0.26868623 4284506208
13.080784 4.3245716 -0.27520558 4284177243
13.280982 4.3513565 -0.30889276 4284243036
13.792039 4.4780755 -0.39613125 4284506208
14.279356 4.5939894 -0.47949237 4284572001
14.902651 4.7505531 -0.585944 4284900966
11.862699 2.209404 -0.063983388 4284243036
10.273203 1.8807606 0.21049637 4285098345
9.9800367 1.7971232 0.26172864 4285361517
9.8553314 1.7453318 0.283923 4285427310
9.7357283 1.6950401 0.30505234 4285427310
9.6276312 1.6472564 0.32396111 4285427310
9.5048571 1.5973494 0.34507465 4285164138
9.3438158 1.5415295 0.37248883 4284637794
9.1902924 1.488139 0.39889014 4284308829
9.08179 1.4430293 0.4176839 4284243036
9.0200348 1.4057602 0.42823863 4283914071
9.0093174 1.3773637 0.43063754 4283914071
8.9704456 1.3446243 0.43773827 4283914071
8.8934679 1.306332 0.45128104 4283782485
8.9621077 1.2900264 0.4400247 4283585106
8.9719391 1.2647247 0.43870577 4283453520
8.9829235 1.2396466 0.43729389 4283387727
9.0537319 1.2228143 0.42568013 4283453520
8.9700823 1.1845069 0.44031736 4283519313
8.8629827 1.1431438 0.45856825 4283782485
8.7208023 1.0982332 0.48313877 4284045657
8.7588511 1.077116 0.47702557 4284243036
8.687233 1.0423249 0.48973253 4284440415
8.5891676 1.0050037 0.50713623 4284374622
8.4704342 0.96552783 0.52782208 4284572001
8.3242369 0.92291576 0.55268812 4285164138
8.3140574 0.89727104 0.55496651 4285229931
8.4492464 0.88732868 0.5322389 4284966759
8.5891838 0.87717521 0.50874168 4284835173
8.6757393 0.86072665 0.49437308 4284769380
8.4719753 0.81427711 0.52934974 4283979864
8.4207354 0.78439945 0.53859943 4283716692
8.5387058 0.77035493 0.51863617 4284243036
8.4859648 0.74052024 0.52815413 4284572001
8.416913 0.70977986 0.5405702 4284703587
8.4309998 0.68642205 0.5386622 4284637794
8.4112701 0.66026771 0.54255372 4284637794
8.3538361 0.63138819 0.55295175 4284637794
8.3764648 0.60873449 0.54948801 4284506208
8.3350935 0.58132344 0.55699831 4284506208
8.2874975 0.55329859 0.56535655 4285098345
8.2796144 0.52841258 0.56697327 4285756275
8.2842627 0.50479847 0.56659472 4285558896
8.4569721 0.49094591 0.53712088 4285361517
8.7153625 0.48053664 0.49269578 4284835173
9.0658808 0.47342402 0.43232188 4284374622
9.6212158 0.47372988 0.33630422 4283782485
9.8502054 0.45520896 0.29657727 4282861383
9.6055279 0.41603932 0.33913001 4282071867
10.473724 0.42088547 0.18857063 4283453520
14.74912 -0.43012735 -0.55101913 4285164138
14.545712 -0.46668303 -0.51608884 4284966759
14.151453 -0.495289 -0.44820476 4284769380
14.182653 -0.53778321 -0.45394963 4284572001
14.155715 -0.57802123 -0.44970292 4284637794
14.381146 -0.62931985 -0.4891257 4284506208
9.6734009 -0.80078053 0.32517213 4283190348
9.2990026 -0.79819298 0.39027974 4282269246
9.064189 -0.80450439 0.43040949 4283058762
9.0866423 -0.83357811 0.42634949 4283848278
9.1295385 -0.8648454 0.41882789 4284572001
9.110939 -0.89020115 0.42183843 4285164138
9.0221033 -0.9078896 0.4366447 4285558896
8.8320293 -0.91442186 0.46886712 4285690482
8.7311573 -0.92930603 0.48558727 4285756275
8.8153887 -0.96453077 0.47071964 4285229931
9.0179329 -1.0140997 0.43575984 4284572001
8.9492407 -1.032752 0.44717076 4284374622
8.9046707 -1.0537471 0.45429179 4284308829
8.8267393 -1.0703851 0.46714619 4284177243
8.8536606 -1.099777 0.46194074 4283979864
8.9060965 -1.1326454 0.45234773 4283914071
9.0001326 -1.1716108 0.43585259 4284243036
9.0167351 -1.2007524 0.43274078 4284572001
8.9457035 -1.2175289 0.4443399 4284637794
8.8658838 -1.2329589 0.45774755 4284703587
8.9160614 -1.2665122 0.44866553 4284506208
8.8743114 -1.2868105 0.45534205 4284243036
8.9252176 -1.3206832 0.4459925 4284177243
9.043252 -1.3651336 0.42508712 4284177243
9.0861082 -1.3986059 0.41714311 4284243036
9.1788425 -1.440433 0.40079686 4284440415
9.2642717 -1.4815819 0.38564506 4284637794
9.1943302 -1.4975208 0.39709631 4284440415
9.2392082 -1.5323455 0.38881591 4284440415
9.2633543 -1.5640012 0.38421538 4284374622
9.2966051 -1.5973601 0.37801227 4284111450
9.3645639 -1.6372834 0.36610982 4284308829
9.4775963 -1.6855413 0.3462337 4284440415
9.6431684 -1.7443777 0.3176918 4284308829
9.5790577 -1.7611232 0.32814395 4284506208
9.6105089 -1.7956229 0.32227245 4285032552
9.6992521 -1.8413166 0.30656347 4284900966
9.9227591 -1.9141812 0.26819631 4284374622
10.031406 -1.9654328 0.24927564 4284045657
10.099895 -2.0093415 0.23735915 4283716692
10.136702 -2.0469754 0.23057057 4283585106
10.399612 -2.1318383 0.18526797 4283585106
10.673082 -2.220593 0.13831079 4283453520
10.764704 -2.2721229 0.12237178 4283256141
10.960061 -2.3469608 0.089175947 4283058762
11.088911 -2.4079525 0.066713326 4282861383
11.161415 -2.4571192 0.053775176 4282861383
11.177756 -2.4940786 0.050452251 4282861383
11.20767 -2.534255 0.044834737 4282795590
11.240745 -2.5755036 0.038931798 4282664004
11.250076 -2.6113377 0.037005905 4282598211
11.317757 -2.660923 0.024856295 4282664004
11.376906 -2.7088594 0.014150565 4282664004
11.437549 -2.7574682 0.0031059068 4282729797
11.521689 -2.8121889 -0.012028459 4282729797
11.645654 -2.8773093 -0.034030251 4282664004
11.728338 -2.9328005 -0.048916943 4282598211
11.823539 -2.9919653 -0.065980457 4282598211
11.970407 -3.0649865 -0.09198156 4282598211
12.188956 -3.1575537 -0.13034596 4282598211
12.458799 -3.2649293 -0.17758104 4282532418
12.717592 -3.3709352 -0.22300276 4282466625
13.118446 -3.5167408 -0.29295754 4282466625
13.590189 -3.68418 -0.3752875 4282335039
14.074385 -3.8577983 -0.45992878 4282335039
14.494827 -4.0164871 -0.53376514 4282269246
14.967851 5.3976011 -0.64898831 4283782485
14.498195 5.1844425 -0.56649226 4283716692
14.267277 5.0589852 -0.52568918 4283848278
13.973245 4.9127655 -0.47361457 4284111450
13.695992 4.7742944 -0.42418632 4284177243
13.451403 4.6485648 -0.3810491 4284111450
13.227978 4.5316195 -0.34150091 4284111450
13.126326 4.4576645 -0.32281142 4284177243
13.045311 4.3911743 -0.30799747 4284243036
13.015388 4.3422403 -0.30217087 4284308829
13.02036 4.3048086 -0.30301285 4284440415
13.202759 4.3257747 -0.33455899 4284769380
13.671118 4.4388647 -0.41581029 4285032552
14.319222 4.6071997 -0.52831632 4284900966
12.193814 2.3082254 -0.15738483 4284177243
10.34437 1.9250225 0.16737214 4285164138
10.081163 1.8458241 0.21422566 4285361517
9.9568396 1.7934563 0.23675793 4285427310
9.8586321 1.7464898 0.25468564 4285361517
9.7047949 1.6901928 0.28217444 4285361517
9.4842739 1.6226339 0.32057181 4285229931
9.2499504 1.5535632 0.36086145 4284637794
9.1166344 1.5033299 0.38414541 4284111450
9.1312628 1.4787234 0.38216472 4284243036
9.0446472 1.437498 0.39764231 4284374622
8.9371672 1.3928441 0.41609779 4283716692
8.8476696 1.3521655 0.43198243 4283453520
8.8391981 1.3246701 0.43401259 4283585106
8.81989 1.2955883 0.43790582 4283716692
8.8933725 1.2802347 0.42560363 4283585106
8.9282656 1.2587564 0.41988704 4283387727
8.94979 1.2353061 0.41660184 4283256141
8.9905834 1.2143873 0.40994778 4283387727
8.953167 1.1824596 0.41672713 4283585106
8.8224297 1.1381212 0.43950123 4283848278
8.6932545 1.0950985 0.46229914 4284045657
8.7068033 1.0709815 0.46033201 4284243036
8.6078463 1.0329908 0.4780153 4284308829
8.5090141 0.99577302 0.49579942 4284243036
8.400754 0.95756996 0.51486051 4284506208
8.2933216 0.91970319 0.53349012 4285229931
8.2278585 0.88804275 0.54545689 4285229931
8.346715 0.87664086 0.52519095 4284769380
8.3363647 0.85088545 0.52741975 4284506208
8.2508707 0.81745386 0.54271519 4284111450
8.322752 0.79991281 0.53037512 4283585106
8.3600111 0.77895242 0.52428365 4283782485
8.3190851 0.7502526 0.53169543 4284572001
8.4041462 0.73354965 0.51730973 4284637794
8.3405533 0.70356816 0.52898562 4284637794
8.3237267 0.677867 0.53243959 4284572001
8.3486929 0.65565741 0.52855718 4284703587
8.3387527 0.63062537 0.53077793 4284703587
