# .PCD v0.7 - Point Cloud Data file format
VERSION 0.7
FIELDS x y z rgb
SIZE 4 4 4 4
TYPE F F F U
COUNT 1 1 1 1
WIDTH 1100
HEIGHT 1
VIEWPOINT 0 0 0 1 0 0 0
POINTS 1100
DATA ascii
-1.120735 -0.93572438 2.3475227 4279623666
-1.1759714 0.32531255 2.2260551 4293012525
-1.3124009 0.0067460453 2.2740812 4293076760
-0.98498112 0.51644403 2.1667933 4292621356
-1.8648394 0.44330913 2.4141746 4279580463
-8.7267437 2.0271749 -17.136711 4280084217
-1.5585103 -0.05742969 2.3448765 4293340208
-1.4399257 0.47990254 2.2881694 4279643938
-3.45191 0.54093242 -2.6127563 4280168241
-0.98844874 0.35128245 2.1798332 4279904806
-1.8726395 0.63566273 2.3927474 4293127166
-3.8708084 1.2482505 -4.1134253 4280479224
-1.7536747 0.69023347 2.3570294 4292489524
-1.1848978 -0.80721039 2.3218176 4292683817
-1.6000787 0.23136279 2.3525457 4279181857
-2.1108453 -0.74107641 4.0773687 4286132265
-4.3316798 1.6246828 -5.8333611 4280545022
-2.8659482 0.6348089 -1.7191337 4280038195
-68.839798 10.821806 -147.23665 4280495665
-1.7074155 0.48602289 2.3630784 4280035116
-1.5132811 0.14851056 1.9660126 4280297769
-0.79497957 -0.28377768 2.1847699 4280106034
-1.6096455 -0.063573532 2.3645339 4279691512
-1.1485443 -0.16232297 2.2550793 4293191413
-1.8005356 0.18812838 2.398839 4280543227
-4.9331832 2.3342466 -7.157897 4280412668
-1.6120991 0.37022692 2.3414621 4279711030
-1.6440835 0.37366435 2.3530729 4293080369
-1.5283828 0.63840353 2.30409 4279377952
-1.4550202 -0.26351035 2.3412421 4279379755
-1.2534512 -0.56254172 2.305649 4280283374
-1.1550676 0.001802478 2.225354 4280298777
-9.3553886 3.3870676 -18.036552 4280102449
-1.7235341 -0.3680585 2.4185205 4280236857
-0.74521118 -0.081459962 2.154104 4279758058
-1.6422094 -0.77616352 2.4198313 4293011493
-1.7118403 0.44660732 2.3634846 4279121206
-1.8961439 -0.316405 2.4556284 4280412154
-0.78372562 -0.64207453 2.2306018 4280098848
-68.839798 10.821806 -147.23665 4280541941
0.13736053 0.84728247 5.1131945 4279973937
-0.80703306 0.4382233 2.1280129 4279443745
-1.2697946 -0.43661302 2.2996926 4280100383
-1.6164844 -0.42078581 2.4013574 4279907895
-1.6461849 0.21459173 2.3625987 4280038449
-0.85553205 0.31667298 2.150995 4292548621
-1.6136982 0.34019098 2.344955 4293008403
-3.0520668 0.79974324 -2.1189423 4280479743
-1.406828 -0.046070218 3.0384054 4280231723
-0.82373011 0.023902988 2.1562793 4292551714
-1.3363835 0.33026475 2.2619524 4280036135
-18.291676 14.317458 -64.71769 4279905328
-1.5219208 0.30972761 2.3210089 4293275956
-1.0213901 0.35360357 2.186589 4292799230
-1.0190099 0.16267891 2.2000663 4292800255
-1.7235341 -0.3680585 2.4185205 4280231971
-1.1522864 -0.49808636 2.2767491 4292753969
-0.75209224 -0.99129593 2.3099132 4280233006
-106.76244 7.1986809 -225.10039 4280035616
-1.8907503 0.25462669 2.4279628 4293125363
-1.4547403 0.49562591 2.291414 4292811545
-0.98844874 0.35128245 2.1798332 4279955450
-1.7232653 0.10868724 2.3900073 4293081141
-1.7208145 0.064549938 1.2577161 4280413439
-1.6440835 0.37366435 2.3530729 4293080119
2.8785381 -0.34412074 16.012775 4280295183
-1.291877 -0.34313703 2.3022039 4280301352
-1.3124009 0.0067460453 2.2740812 4293127423
-4.2001667 1.5781384 -5.3104281 4280626993
-1.4207951 -0.86283189 2.3667974 4292930042
-1.3515952 -0.62241209 2.3336103 4293126138
-1.1734533 0.48691949 2.2166979 4280170786
-1.3290398 0.5228126 2.2578139 4279838247
-0.78656155 0.72842461 2.0998549 4292929020
-1.400337 -0.84714991 2.3647721 4279839791
-1.4310032 -0.24188069 2.3236811 4280296993
-1.0837629 0.26000512 2.2089019 4279972911
-1.8201684 -0.42728963 2.4534283 4292995325
-1.2871319 0.90588933 2.7897875 4279822830
-1.8763068 -0.043856096 2.4346094 4293061628
-1.8567547 0.3243396 1.3422542 4279907896
-0.81982374 -0.35017896 2.1914282 4280164897
0.6369803 0.38950279 8.7185726 4280150259
-1.1480575 -0.46367478 2.2836406 4280362788
-1.7626183 -0.16152549 2.4037147 4280164895
-1.8338099 -0.078689933 2.4248278 4280561459
0.36630875 0.55957484 5.7448368 4280359705
-1.4457847 0.65054554 2.2910788 4279838233
-1.5976733 0.29746813 2.3449979 4279508767
-1.8401935 0.32005385 2.4086654 4292293148
-1.6991529 0.46167958 2.3646693 4292927984
-0.70069456 0.18104137 2.1082518 4279821296
-0.80367386 0.69168371 2.1138308 4279055932
-5.0033164 2.2846944 -8.3668432 4280626737
-13.407289 8.0508852 -20.533556 4279971888
-1.0802569 0.093394056 2.2170172 4293322999
-1.7243398 -0.4872632 2.4215856 4280235316
-0.80073035 0.37419617 2.133003 4279841585
-0.91077006 -0.45165446 2.2137647 4280299566
-1.894068 -0.36722529 2.4690723 4292946474
-1.7940284 -0.60028255 2.445524 4292686122
-1.1968808 0.31171653 2.2256403 4279627518
-1.4781643 -0.78554285 2.3829746 4280100906
-0.80417091 0.7795561 2.0992696 4280234542
-1.0997082 0.39940318 2.2087095 4292618796
-2.6657987 0.65350515 -1.4329369 4280410864
-1.6778351 0.72831678 2.3361347 4292404722
-7.2061877 2.7745965 -14.878878 4280412923
-1.0144529 0.19294873 2.2084553 4279776043
-1.3079603 0.039698936 2.2793555 4280235580
-1.7539705 0.6561836 2.3611388 4279710002
-0.82251304 0.67146599 2.1147032 4292366912
-0.95098454 0.25956249 2.1780362 4292880688
-1.6174517 -0.32271606 2.3831356 4279444511
-0.92292225 -0.24034175 2.2086811 4279970601
-1.3457735 -0.31839389 2.3077073 4280231715
-1.0281281 -0.063906416 3.9638758 4280298028
-1.624733 -0.65978003 2.3915663 4280234035
-4.3092866 0.8297646 -4.7332377 4280215802
-1.4792883 0.65039289 2.2962141 4292537854
-2.6664836 0.85215366 -2.3977504 4280558885
-0.79200858 -0.84787381 2.2741323 4280316279
-1.3301181 0.57983196 2.1563888 4279841837
-2.5579159 0.53859192 -0.73148251 4279248167
-1.2534512 -0.56254172 2.305649 4280234530
0.5801484 -1.0214814 8.5383835 4280541939
-0.93318921 -0.023909859 2.1865702 4279842875
-1.1759714 0.32531255 2.2260551 4293059557
-1.6767082 0.75038576 2.3344984 4279249196
-0.70333701 0.30873442 2.1051414 4279841841
-1.2461386 0.10229193 2.2517908 4279970088
-1.1444288 -0.81105447 2.3218467 4280214771
-3.9237158 0.88226283 -3.4952536 4280216574
-1.3432446 0.34108788 2.468919 4280230434
-1.3297714 0.25455657 1.9874907 4280234541
-1.4805921 0.39009431 1.3798444 4280296733
-3.3632336 0.94318682 -5.2917848 4280494889
-0.9719612 -0.83092749 2.3024457 4292557359
-1.8696909 0.2709792 2.4185312 4280365361
-0.71317846 0.68954712 2.0850852 4279232249
-1.5085863 0.55171269 2.3031437 4280102946
-1.3627421 0.72157252 2.258064 4292623669
-6.8680644 3.0588813 -10.054191 4280412667
-1.0490249 0.7653082 2.1696658 4292420385
0.77607119 -0.61055803 5.4416566 4279973169
-1.4647753 -0.11549439 2.3363276 4280299050
-1.0267971 -0.0035587056 2.1996024 4280296225
-1.8997051 0.32801625 2.4260161 4280083188
0.065392338 -1.7925496 9.700181 4280754453
-0.80073035 0.37419617 2.133003 4279887864
-1.5052763 -0.31435227 2.3480365 4293387254
-1.7132758 -0.84510529 2.4429688 4293273376
-0.47754991 0.71064234 3.4708142 4280216316
-4.4507136 0.77024782 -5.6724739 4280297770
-4.3316798 1.6246828 -5.8333611 4280493091
-0.70795256 0.63117623 2.0751081 4279968801
-2.0324726 0.11176702 0.57066792 4279903530
-1.0478457 -0.21913944 2.2209351 4280295967
-1.4100028 -0.015248729 1.9942497 4280297510
-1.5413512 -0.39846793 2.3673139 4293143075
-1.2617816 0.1586888 3.05427 4279777840
-4.3092866 0.8297646 -4.7332377 4280216573
-1.6314249 -0.30555174 2.385844 4293338400
-1.3622003 -0.268264 2.3149135 4279774764
-0.93080986 0.56786799 2.1460674 4278511610
-1.3796476 0.14325719 2.2862575 4293206817
-1.5244504 0.61723387 2.3070211 4278592548
-1.7819992 0.8135885 2.3567779 4279905057
-1.0566335 0.72309035 2.1711731 4292209405
-1.3432446 0.34108788 2.468919 4280231712
-1.44085 -0.84436435 2.3729796 4280101909
-1.1864661 -0.29247496 2.2598615 4280034592
-1.2407486 0.60624075 2.230387 4291765028
-1.8337715 -0.76091748 2.4663959 4293080364
-0.81897694 -0.31165901 2.1909881 4292816173
1.8256097 0.033961769 7.4789543 4278723874
-0.71883255 -0.56308025 2.1900313 4292687663
-1.6651762 0.44170874 2.3524599 4280038967
-1.6536655 0.640257 1.2491621 4278970105
-2.1494536 0.032982592 2.0342221 4286064420
-0.8450169 0.12212305 2.9238162 4280454024
-0.99376678 0.026963852 2.1929677 4280019950
-0.82251304 0.67146599 2.1147032 4292359740
-15.575007 6.0169706 -19.046085 4285543219
-1.668465 0.2261848 1.1144656 4280152062
-1.5988605 0.80953437 2.3167398 4279754988
-0.77424973 0.45901772 2.1158783 4279905068
-1.63695 0.68843365 2.32844 4292490033
-1.779633 0.81522954 2.3539617 4279905323
-1.4323596 0.7048949 2.2821949 4278921249
-1.0190099 0.16267891 2.2000663 4292751396
-0.70340765 -0.54437298 2.1799178 4279382560
-1.3991319 -0.21247807 2.3122241 4292881456
-1.7915071 -0.11393896 1.3089406 4280230952
-3.3434289 0.89259726 -2.61763 4280346876
-1.7238771 0.14433971 2.3808582 4293126648
-1.6314249 -0.30555174 2.385844 4293390076
-0.98537213 -0.1723424 2.220845 4280367925
-1.7763013 -0.52331388 2.4407678 4279888377
-4.6141925 0.93246329 -5.0066257 4280500021
-3.0632963 0.83253926 -2.0397978 4280038452
-1.1837349 -0.12542917 2.25808 4293142565
-1.2625663 0.58482534 2.2346447 4292617512
-1.482818 0.43699607 1.9531233 4279772190
-1.4934655 0.21227391 2.3155744 4293145381
-1.4671867 -0.14867039 2.3309674 4293060343
-0.69461328 0.50854331 2.0992937 4279885805
-1.1744605 0.35838404 2.2277734 4280148726
-1.8063498 0.022095954 2.4107382 4293080365
-1.5612051 -0.0260156 2.3402598 4279052324
-1.389376 0.43853527 2.2776594 4278837745
-0.71700871 -0.26287431 2.1461473 4280035112
-1.6674672 0.44738805 1.4132322 4279776306
-3.3924351 0.79444247 -2.511241 4280037680
-1.1035532 0.078347988 2.2201188 4279773484
0.36630875 0.55957484 5.7448368 4280412151
-5.6394448 1.6954516 -7.0179548 4280280827
-1.74499 -0.22650784 2.4116096 4293323512
0.39378342 0.60572869 4.2491612 4280102703
-1.3430413 0.042128351 2.283757 4292951353
-1.5113423 -0.61030394 2.3612499 4280216315
1.0370045 0.33202177 5.9053326 4280099619
-1.8117598 0.64049023 2.3749168 4279888381
-1.4466814 0.68298525 2.2777278 4292616213
-3.2995937 0.88006908 -3.1227088 4280234294
-1.7208145 0.064549938 1.2577161 4280413694
-1.3297714 0.25455657 1.9874907 4280228377
-1.3642448 -0.23981863 2.3083344 4279759103
-1.1036015 0.029939599 2.9061933 4280542195
-1.8748511 0.30064735 2.4176347 4293061115
-1.4155465 -0.59517318 2.3473063 4280296742
-1.6753173 0.76502329 2.3314397 4278712567
-1.0204022 -0.30393058 2.2396269 4292881964
-1.6536655 0.640257 1.2491621 4278948236
-3.2554491 0.91433537 -3.1133525 4280674553
-4.5396137 1.014587 -8.2025175 4280361764
-1.709057 -0.16064796 2.3953147 4280624677
-0.98340887 0.67347801 2.1600633 4279574303
-3.879679 1.4364603 -3.9683945 4280296740
-1.8357633 0.39613166 1.43199 4279823871
-1.1207756 0.46629339 2.2041619 4279953915
-0.85978329 0.51306885 2.1331017 4292356143
-1.295187 -0.45065212 4.0783997 4280477691
-3.0184371 1.0261976 -2.9284258 4280346619
-4.1416216 1.6696118 -4.0901666 4292552486
-0.90787256 -0.080743179 2.1832633 4279429887
-0.7826342 0.39326662 2.1243169 4292795885
-3.2514594 0.64401948 -2.7228127 4280017900
13.25201 -5.8138447 44.875553 4280413691
0.37129754 -3.4266653 7.4715447 4280628527
-0.83001012 -0.011373917 2.1527193 4280034846
-1.871518 -0.3754113 2.4623663 4280298797
-2.7911522 0.72435379 -1.5545456 4280035365
-1.1485443 -0.16232297 2.2550793 4293192441
0.065392338 -1.7925496 9.700181 4280757549
-0.70340765 -0.54437298 2.1799178 4279430143
-106.76244 7.1986809 -225.10039 4280036129
-1.5855117 -0.069220655 2.3542395 4280034080
-1.3974597 0.25311789 2.6258762 4280431411
-1.3774137 -0.56411707 2.3256454 4280628262
2.6096926 -2.6813891 8.5467815 4292815654
-0.88706291 -0.40966797 2.1951587 4280149236
-1.4234014 -0.26175496 2.3257177 4280085490
0.055617772 -1.4488322 11.723598 4280412921
-2.5579159 0.53859192 -0.73148251 4279252013
-1.1995665 0.61952823 2.2195811 4291490047
0.63778895 -2.9948232 10.351281 4280493092
-9.1990652 3.1050718 -17.696619 4280365614
-0.8450169 0.12212305 2.9238162 4280429610
-3.4294972 0.80222696 -3.7190361 4280411639
-9.3553886 3.3870676 -18.036552 4280100136
-3.3924351 0.79444247 -2.511241 4280081885
-1.1822952 -0.33019102 2.28003 4292863737
-1.6461849 0.21459173 2.3625987 4280037425
-1.1848978 -0.80721039 2.3218176 4292685865
-3.6199236 0.76751584 -3.5678384 4280346876
0.74882692 -1.2424968 6.9198079 4280297248
-1.8630717 0.24274504 0.46562022 4279837995
-1.9166789 0.014860577 2.4446535 4280494375
-1.4716016 -0.44665286 1.7779577 4280230435
-1.6422094 -0.77616352 2.4198313 4293027399
-1.4363766 0.39051279 2.2959328 4279693815
-1.580529 0.60923994 2.3178585 4292555569
3.487813 -3.5206056 15.687999 4280347642
-1.314966 -0.14787683 1.5708748 4280425243
-1.3515952 -0.62241209 2.3336103 4293124582
-1.9062452 0.24151701 2.4368126 4279711271
-1.2372608 0.42228073 2.2358847 4279641626
-0.71935683 -1.0281219 2.3011246 4280151294
-1.0912133 0.75842547 2.1816902 4292225063
-1.6615371 0.38251007 1.2937102 4280019961
-0.85978329 0.51306885 2.1331017 4292359737
-1.2543641 -0.42080146 2.2942924 4291763228
-1.5058302 -0.44278333 2.3677776 4293147190
-0.95006669 0.60667217 2.1525042 4292491064
-1.4792316 0.38782209 0.93809956 4279954943
-1.5918295 -0.42027962 2.3897207 4279709737
-1.2049747 -0.10373999 2.2571263 4280298028
-0.71322864 -0.19947699 2.1436548 4279167998
-1.7206718 0.077367038 1.4702877 4279970864
-1.1734533 0.48691949 2.2166979 4280216056
-4.86128 2.6647315 -9.0005522 4279705112
-1.182941 0.0014660805 2.2431486 4292881447
-1.6119348 -0.36769521 2.3894053 4280347389
-1.4142072 0.34049466 1.8343421 4279102458
-1.1506692 0.36333537 2.4671791 4279901458
-1.0425684 -0.61817789 2.2646308 4280279794
-0.71183372 -0.22736794 2.1470106 4279448880
2.6096926 -2.6813891 8.5467815 4292815400
0.61596256 -1.6250325 5.8677573 4280366375
-19.71163 4.9077101 -46.777676 4292879132
-2.8822074 0.78702593 -2.0426226 4280039223
3.3819602 0.33989561 11.81547 4280151805
-1.7668992 0.14833425 0.90424651 4280105521
-10.375049 1.1696122 -19.283903 4280296231
4.3306603 -3.757776 21.289473 4280558627
-1.7791886 -0.13587749 2.4121442 4293207589
-2.2561698 0.059060797 1.6910992 4282988335
-1.7846949 -0.43016309 2.4484911 4280232734
-1.1041905 -0.60803503 2.2862086 4292864745
-0.82373011 0.023902988 2.1562793 4292600564
-1.0816705 0.72496808 2.1783056 4292535026
-2.8822074 0.78702593 -2.0426226 4280035634
-1.8516426 -0.70029414 2.4633765 4279641897
-1.8966067 0.55761528 2.4111717 4279446558
-0.8606143 -0.81426638 2.2703912 4280034080
-0.42616203 -0.12914145 7.2956486 4280150523
-3.9968786 0.67640954 -4.3030105 4280299566
-3.1198528 0.47403502 -1.8827345 4285019956
-1.520381 -0.094306991 2.3387871 4279167482
-1.668465 0.2261848 1.1144656 4280098078
-2.0881007 0.24491926 1.0270836 4279382320
-1.2798196 0.30871949 2.2553291 4280215795
-1.1125017 0.44234326 2.2037349 4292691521
-0.75416195 0.72878164 2.1021106 4279821558
2.7845929 -3.6813188 14.254046 4280413183
-1.4880769 0.22650586 1.7511436 4279971377
-1.9999862 0.30634141 -0.24964462 4283114790
-1.4120239 -0.53416139 4.0333734 4280344045
-1.2933245 -0.20587175 1.7733934 4280479743
-0.74092764 -0.54515994 2.1975284 4279603084
29.267365 -4.7081308 70.713371 4280475117
-1.3154978 -0.15451568 2.2809758 4280413181
-0.95481944 -0.092353359 2.2005601 4292799229
-1.8593844 0.6465441 2.3881125 4279381808
0.059674047 -0.14373067 4.7395964 4280151551
-1.4207951 -0.86283189 2.3667974 4292884025
-1.6385181 0.49928021 2.3400061 4292948787
-1.1888142 -0.18931751 2.4363964 4280557857
-1.8543612 0.00071397581 2.425817 4293074712
-3.8708084 1.2482505 -4.1134253 4280429859
-9.3501005 7.0886827 -14.702616 4280148456
-14.258451 1.741309 -31.426241 4279640605
-2.083112 -0.033112813 0.88705164 4280752393
-1.6000787 0.23136279 2.3525457 4279232504
-1.3736591 0.46676925 2.2721708 4291960339
-0.89718211 -0.77424496 2.273298 4280236089
-1.5125526 0.62664193 2.3000085 4290721069
-1.5497512 0.61297721 2.3093982 4292863734
-1.74499 -0.22650784 2.4116096 4293271819
-1.854122 -0.060388252 0.62721205 4292687408
-2.8242388 0.74050105 -2.425669 4280362280
-1.9578003 0.27392325 -0.1592859 4282589989
-1.7225114 0.42988199 2.3722253 4292818477
-0.7224229 -0.21268792 2.1568797 4293080884
-1.6714603 0.07877782 2.377562 4280104487
-2.9150338 1.1770439 -2.3406844 4280167206
-1.7550933 0.29877558 0.87766671 4279839526
-0.9672367 0.62516212 2.1549072 4279626490
-7.8952756 4.177309 -17.27356 4280166439
-1.3581727 0.76896769 2.2566762 4278906365
-1.5828664 0.19490947 1.4521899 4280084732
-1.4413834 -0.57972097 2.3583055 4292879639
-1.8548595 -0.073778056 2.4372883 4280101163
-1.7838376 0.69251317 2.3782151 4279381553
-1.5201255 -0.094541796 2.3396316 4279117352
-0.81897694 -0.31165901 2.1909881 4292863217
-1.6339948 0.33260903 1.7870866 4280036133
-1.6667509 -0.47136235 2.4087458 4292866047
-1.358366 -0.78610408 2.3378134 4280166183
-1.7825389 -0.83113873 2.471112 4280623404
-1.358366 -0.78610408 2.3378134 4280167189
1.0772918 -0.59991235 11.019763 4280230417
-6.1637611 3.6101029 -8.6965218 4280347387
-1.6714603 0.07877782 2.377562 4280101934
1.3726412 -1.2210052 8.1200504 4280411380
-1.751524 0.37116367 0.92319584 4279823099
-3.3638833 0.89997345 -3.523479 4280232739
-0.88753647 0.6125685 2.13586 4292603390
-1.2345235 0.31310195 2.2388198 4279038713
-0.91237414 0.54471058 2.1519289 4292472063
-1.2364372 0.58237588 2.2270956 4279901978
-1.4997742 -0.11201463 2.33793 4293257716
-1.4523098 -0.55040342 2.3601186 4280609273
-1.4207951 -0.86283189 2.3667974 4292877852
-1.6674672 0.44738805 1.4132322 4279775254
-0.98219401 0.80137819 2.156224 4279973940
-1.5907332 -0.32491386 2.3753028 4279626745
-3.9785452 1.0198334 -4.5631533 4280493334
-1.1797255 0.2003185 2.2332451 4293013299
-1.4209064 0.77951813 2.2689776 4292995063
-1.647871 -0.80504113 2.4043925 4280624666
-1.2461386 0.10229193 2.2517908 4280018937
-1.7493963 -0.11008757 1.8773636 4279968806
-1.4596138 0.20828258 2.3114772 4279823099
-1.0165905 -0.85759282 2.2948444 4292601056
-1.7846949 -0.43016309 2.4484911 4280233779
-1.4445491 -0.25124899 2.3314068 4291488508
-0.61094952 0.49873909 4.7894225 4278201387
-0.95483065 0.22442375 2.1819181 4292996350
-1.1444288 -0.81105447 2.3218467 4280164127
-1.9877443 0.067784205 0.25466299 4289773000
-1.2414593 -0.022924164 2.2586479 4293405222
-1.3449223 0.5384146 2.7826211 4278525214
-3.8240161 0.88402778 -3.6746929 4292603647
-1.5988604 -0.0091644255 2.3521304 4292996093
-1.6607474 -0.27118206 2.3967171 4293405482
-1.5579289 0.11377129 2.342284 4279958015
-1.373076 -0.19634405 2.3115823 4290980656
0.11658999 0.1607856 5.4404354 4280302900
-1.861853 -0.31335521 2.4524901 4280163610
-1.1153047 0.70287406 2.194926 4279708977
-1.6963538 0.31747249 1.3038406 4280218361
-1.0813638 0.22590055 3.2721858 4293011499
-1.3927006 -0.89709663 2.3620028 4292731373
-1.7789822 -0.58201522 2.4442897 4279711796
-1.0837629 0.26000512 2.2089019 4280019197
-0.88341498 0.53512198 2.138797 4280142801
-1.7979248 0.36875343 1.1797802 4280084217
-1.8965818 0.27719194 2.4214737 4292994547
-1.6918141 0.47400367 2.3576469 4293013812
-11.867098 2.954361 -18.58526 4292751923
-1.0267971 -0.0035587056 2.1996024 4280302639
-5.4974842 3.2057302 -8.8894424 4280151037
-1.3759449 -0.94651973 2.3721411 4280692012
-1.7303511 0.10213354 2.3846257 4293140508
-0.7432248 -0.23446383 2.1619945 4280299824
0.40661693 -0.46764132 5.9476433 4292813603
-0.79551107 0.45194432 2.123271 4291552759
-1.1877536 -0.66844636 2.2957118 4292865274
-3.2562027 0.42757735 -2.1385102 4284692272
-1.7498674 0.16552907 2.388134 4280357896
-1.5467039 0.41650021 1.6666728 4279772965
-1.0249257 -0.50413394 2.2476449 4292799468
5.4775357 -10.047684 29.443855 4279449385
-0.80303276 0.13367541 2.1455293 4280230433
-1.8393117 -0.051619247 2.4294696 4292425003
-0.96565068 -0.39859259 2.2398303 4280020733
-2.8834329 0.70842981 -1.7824466 4280298541
-0.75080943 0.57171792 2.1020622 4279581751
-1.3501868 0.38456461 2.2701089 4279185203
-1.0915848 0.41180071 2.2038369 4289734171
1.1677276 -0.090061128 5.0774837 4280103474
-1.5866054 -0.66046393 2.3924851 4279624692
-1.2701476 0.23884715 2.2529018 4292798190
-1.8680831 0.22460464 0.53811693 4279711781
-0.88971883 -0.3863923 2.2127755 4292864505
-1.7441785 0.14355883 2.3867517 4293142314
-1.6543083 0.019671567 2.3650923 4280497980
-0.9531582 -0.81234044 2.299243 4280756256
-1.7598166 0.50419998 2.3771653 4292995070
-1.5776454 -0.35524604 2.3640375 4293258750
-1.4792316 0.38782209 0.93809956 4279905325
-1.3680265 -0.17441182 2.3020608 4280479743
-1.036245 0.66630912 3.2723212 4280018670
-1.8772645 -0.67663217 2.4658499 4279646769
-1.2925503 -0.1757196 1.5965872 4280215545
-1.2851713 0.22123645 2.2658134 4279707154
-1.4713229 0.55101246 1.9758475 4279908400
-3.2542124 0.68960696 -1.933552 4280099358
-2.0064392 0.14115939 0.26491004 4279708971
-1.5491515 -0.041003566 2.3293197 4279248421
-2.0607021 0.039855428 1.3305082 4280428832
-0.46893752 -0.90670216 3.4395118 4292866803
-1.1268682 -0.24611901 2.2558806 4280300827
-0.75386637 0.093891755 2.1351025 4292863481
-1.2169462 0.54971796 2.2276802 4293141282
-0.82457942 0.47848535 2.131088 4292602107
-1.5497512 0.61297721 2.3093982 4292815143
-1.0807661 -0.61936617 2.2800231 4280432427
-1.3430413 0.042128351 2.283757 4292991700
-1.8876711 0.0073688859 0.67307276 4293279029
-1.7940284 -0.60028255 2.445524 4292733694
-1.1942606 0.54220927 2.2208157 4279953147
-0.72318625 0.7770893 2.0778186 4280216059
-1.8621531 -0.3317126 2.4503372 4280036647
-1.854122 -0.060388252 0.62721205 4292687652
-1.4523098 -0.55040342 2.3601186 4280610302
0.059345413 0.62510109 4.6459723 4280098325
-19.71163 4.9077101 -46.777676 4292932345
-1.6773885 -0.80779511 2.4255714 4293209130
-1.3218828 -0.65880853 2.3235371 4292879144
-1.4631261 0.39375195 1.8513036 4280038704
-1.7616906 -0.075760134 1.032761 4280561703
-0.61094952 0.49873909 4.7894225 4278249978
-0.85212201 -0.48017672 2.2169073 4292734704
-1.2372608 0.42228073 2.2358847 4279689454
-1.9445848 -0.73983616 2.4990671 4280302642
-1.4226356 0.71444613 2.2727952 4291836473
-1.2046113 0.57577556 2.2235076 4292469744
-1.2819346 -0.019808453 2.267925 4292273652
-1.1797255 0.2003185 2.2332451 4293010979
-1.8393275 0.32380122 1.3358623 4292927976
-1.5540224 -0.33231965 2.3767624 4280562226
-1.5349467 -0.70381099 2.377744 4279887348
0.13143402 -1.0113708 6.7635198 4280165669
-1.3158309 -0.31722784 1.6408172 4292751152
-1.8183781 0.36958635 0.64601099 4279579961
-1.7652265 -0.56782293 2.4299414 4293126142
-0.91745001 0.32725766 2.8397901 4280167470
-1.8773402 -0.65671301 2.470078 4292995835
-1.5638901 0.042160939 1.7381823 4292951349
-1.3861198 -0.5893029 2.3396752 4292621613
-1.6104913 -0.091929182 2.3683617 4280019967
-1.0402123 -0.24830091 2.2394614 4280362271
-5.4974842 3.2057302 -8.8894424 4280151035
-1.082435 0.078735605 2.2135952 4279757819
-1.4445491 -0.25124899 2.3314068 4291438888
-1.0345123 0.40109381 2.1851532 4279101438
-3.7340722 0.56146079 -2.8906105 4280281595
-6.3084178 2.068424 -10.663136 4280166181
-1.0676112 0.40571427 2.2002237 4279233022
-1.71638 0.61729783 1.3511558 4279705886
-0.98710585 0.31890443 2.1815557 4292485668
-1.4713229 0.55101246 1.9758475 4279905325
-1.8744456 -0.474381 1.4115347 4280690987
-1.8876711 0.0073688859 0.67307276 4293317088
-0.11956586 0.92090029 5.4786077 4278987301
-1.5150907 -0.78121668 2.3842173 4292883765
-0.75386637 0.093891755 2.1351025 4292815382
-1.8382621 0.17619717 0.62483734 4279887356
-0.87605041 -0.71691984 2.2436914 4280282367
2.2977557 -3.8403549 12.271242 4292796402
0.43401772 0.72203732 5.9244857 4278204472
-0.79703069 -0.88447118 2.2684331 4292423459
-1.8631856 0.37265599 1.0842805 4279905570
-1.8939536 0.30835691 2.4212565 4293255667
-0.59067267 -2.3507228 10.708939 4293053650
-1.4096391 -0.38695744 2.3399618 4280214259
-1.5638901 0.042160939 1.7381823 4292995578
-0.73292559 -0.5950917 2.1982756 4292538618
-1.5932016 -0.079312451 2.3607366 4287490299
-2.992985 1.0425655 -2.9223642 4279577646
-1.4788698 -0.65128982 2.355355 4280347641
-0.90941668 0.59401727 2.1637912 4292667630
-1.5828664 0.19490947 1.4521899 4280088063
-1.4335253 -0.59393746 4.1371613 4280675826
-1.5193086 0.27532917 1.746379 4292946211
-1.548038 -0.71851164 2.3791208 4292030760
-2.0069873 0.0045740651 1.7755195 4280429610
-1.7616906 -0.075760134 1.032761 4280563755
-2.82323 0.78887939 -1.906394 4280039993
-1.9163476 -0.32902753 2.4684012 4292622135
-1.5345641 -0.28802451 2.8807051 4293142559
-1.5372677 0.24034281 2.3295929 4293126137
-2.0870485 0.13831429 0.443885 4279691773
-0.74429697 -0.9126479 2.2553251 4280148976
-1.3736591 0.46676925 2.2721708 4291966252
-4.5119934 1.9666228 -6.8703218 4280149493
0.059674047 -0.14373067 4.7395964 4280151293
-1.5802234 0.060456105 1.0102416 4280018940
-1.2138063 0.4975481 3.3373322 4280758318
-1.3102045 -0.12082536 2.2905736 4293010980
-1.3530402 0.78228849 2.2506835 4291637289
-1.182941 0.0014660805 2.2431486 4292930813
-1.6692553 0.1811797 1.0163878 4292949033
-2.7087276 0.74904579 -1.4458963 4280152319
2.2977557 -3.8403549 12.271242 4292798715
-1.3147098 -0.32231897 2.3044655 4293061629
-1.4788698 -0.65128982 2.355355 4280347643
-0.77288747 -0.54136896 2.2009602 4279381545
-0.92738587 -0.39997464 2.2230036 4292797950
-1.2826142 0.80233622 2.2472479 4279843117
-1.8412062 0.58698654 2.3896239 4292949294
-1.3673661 0.75577509 2.257117 4291619316
-0.7196275 0.087331846 2.1280422 4280152831
-1.8726395 0.63566273 2.3927474 4293127923
-1.3974597 0.25311789 2.6258762 4280477677
-1.6667509 -0.47136235 2.4087458 4292813341
-1.7836545 -0.8777495 2.4710097 4280872188
-2.9168696 0.85261047 -4.3616972 4280348671
-1.2169462 0.54971796 2.2276802 4293147450
-1.2786444 -0.090286531 2.2793584 4293388026
-2.1305108 0.10002036 0.74925768 4280686354
-0.92763281 -0.81157041 2.2845359 4279907377
-1.0591298 0.4491995 2.1922426 4293011499
-1.1837349 -0.12542917 2.25808 4293140771
-1.2179492 -0.72729594 2.3167293 4292812830
-1.3686136 -0.60306054 2.3358688 4279499263
-1.7092998 0.40629789 2.3681934 4290897915
-1.288052 -0.39491445 2.2977457 4280362531
-1.2925503 -0.1757196 1.5965872 4280165671
-1.0653865 -0.90957612 2.3218431 4279051044
-1.1206516 0.3829641 2.2108521 4280083965
-3.3638833 0.89997345 -3.523479 4280233263
-0.72537565 0.42187166 2.1059167 4290913058
-7.9329386 2.0572393 -12.533674 4292683048
0.36477736 0.015139597 4.5675554 4292754236
-0.99420655 -0.0054182466 2.1955202 4292865532
-1.2532676 -1.0143013 4.2641544 4280295714
-1.520381 -0.094306991 2.3387871 4279115550
-0.98639584 -0.13525295 2.2166641 4293013282
-1.1466756 -0.29583585 2.2701416 4292863737
-1.9089824 -0.030190477 2.4470422 4280758812
-1.5574731 -0.29998034 3.2608104 4280359964
-1.6480531 0.18177666 2.3622839 4293015079
-1.9149263 -0.07625635 2.450608 4280563254
-1.4695164 -0.84087777 2.3772354 4279821811
-1.3768868 0.21213903 1.7188385 4292815900
-1.176753 -0.73448479 2.7898681 4280365620
-1.283592 -0.05020389 2.2718873 4293127167
-1.1257138 0.14468729 2.2234924 4280478973
-1.3102045 -0.12082536 2.2905736 4293061628
-1.1745422 -0.14425154 2.04057 4279364348
-1.5353142 -0.7606889 2.3861527 4280103726
-1.0406263 -0.45458844 2.2241621 4280301113
-4.1342311 1.1360271 -5.4010439 4292883505
-1.0907245 -1.5293312 6.064579 4292969580
-1.2116292 0.3004652 2.2360113 4293140512
-1.6104332 0.23509069 1.8929987 4280610301
-0.98749101 -0.68471259 2.264878 4293015081
-3.8356307 1.5786445 -4.1819348 4292616998
-8.6828394 1.8759068 -15.351583 4292733692
-0.7316047 -0.26577899 2.1668427 4292685359
-2.4780648 0.57562715 -1.3008173 4280039985
-1.5464807 0.60127968 1.726772 4292603391
-1.1217879 -0.27327979 2.2698572 4280428837
-1.5486891 -0.15023488 1.6068932 4280348670
-1.5574731 -0.29998034 3.2608104 4280414711
-1.6986158 0.12940273 2.3784745 4293648368
-1.4315575 0.28419995 2.9398804 4280495392
-0.93691915 0.74455863 2.9555674 4280100393
-1.8572491 0.61992067 2.3911667 4280102700
-1.6991529 0.46167958 2.3646693 4292882217
-1.7132758 -0.84510529 2.4429688 4293273370
-3.3975124 0.52555925 -3.0925314 4279965458
-0.69844919 -0.62872839 2.2039273 4280229665
-0.73939872 -0.29346919 2.1694324 4280150521
-1.0551692 0.77557898 2.1687491 4292423476
-1.2609597 -0.35353869 2.5082638 4280167213
-1.5068449 0.44177574 1.373185 4279447089
-0.71492749 0.36638698 2.1065483 4279167482
-1.7865458 -0.18905644 1.2352221 4293061113
-1.8135531 0.55878854 2.3862159 4280149755
-16.928156 7.126565 -36.550884 4293123564
-1.8940455 -0.66626275 2.4701803 4293385453
-0.71492749 0.36638698 2.1065483 4279168509
-2.6781712 0.6465438 -1.3506968 4280428580
1.3665833 0.22641464 10.939988 4280216315
-25.776457 3.6633351 -45.141098 4292752952
-0.82357824 -0.17747997 2.1768985 4292932607
-25.776457 3.6633351 -45.141098 4292766805
-1.0372258 -0.87872964 2.2968676 4279904297
-2.9601047 0.69509709 -1.9843211 4279973416
-0.80910492 0.30921131 2.1554294 4279776048
-21.76125 11.418451 -41.427975 4292756523
-1.7232653 0.10868724 2.3900073 4293074719
-1.655942 0.71251041 2.3315895 4279644209
5.4657402 -1.1988438 16.184755 4292862445
-1.0936191 -0.91588295 2.3360133 4279757560
-1.0488662 0.4161793 2.1915538 4292996091
-0.39312032 -1.0083818 2.2967412 4280019707
-0.7684316 0.12848894 2.1330187 4280084986
-0.7877273 0.075928114 2.1464572 4292602608
-1.3744392 -0.84387481 2.3475385 4279625978
-0.67269421 -1.000636 2.2701972 4280099097
0.82665515 -0.029787049 5.3431282 4280017134
-3.3506839 1.3643711 -3.3627899 4292801786
-1.2116292 0.3004652 2.2360113 4293143598
-1.0204022 -0.30393058 2.2396269 4292879646
-1.8961723 0.60916775 2.4021804 4279445545
-10.403286 5.0838857 -36.769474 4293192185
-1.8705432 0.23913693 2.4203238 4279838502
-0.71254903 -0.59156102 2.1747818 4280411637
-1.3942488 0.74161464 2.2635777 4291881208
-1.2766781 -0.67904973 2.317502 4279707941
-1.8966067 0.55761528 2.4111717 4279494647
-1.3768868 0.21213903 1.7188385 4292863992
-1.6930478 0.086965479 2.3780432 4292028188
-1.8888417 0.090668999 0.49609703 4292882739
-0.8024981 -0.45268643 4.2636156 4293127935
-1.4354876 -0.44529656 3.3457193 4279745992
9.7407885 -12.346243 38.923508 4292747294
-1.7926149 -0.64275479 2.4621639 4280087022
-8.3853273 3.6064236 -14.160789 4291423230
-0.91108716 -0.71623421 2.2698102 4280346361
-1.6741259 0.31587803 0.97533953 4279495421
-0.79000747 0.76457518 2.099319 4280020735
-0.93518084 -0.41337359 2.2254074 4292944677
-0.93293267 -0.070236586 2.1979887 4280037410
-0.96560621 0.21997453 2.1723351 4290261041
-4.8055549 2.6228526 -8.6839666 4292555568
-1.9016532 -0.39593518 2.4732025 4292539135
13.143005 -3.8289752 30.118177 4279166456
-1.0837598 -0.89422309 2.3221018 4293126392
2.6948035 -0.68315828 8.9712334 4280165671
-0.94207036 0.55780274 2.1540802 4291947259
-1.4757898 -0.6181407 2.3705637 4293015850
-1.5540224 -0.33231965 2.3767624 4280559395
-1.7238888 -0.20624782 2.3986371 4280478974
-8.3853273 3.6064236 -14.160789 4291374378
-0.36752728 -0.18403335 5.8271461 4279448881
-1.249477 -0.76339489 2.3307869 4292864764
-1.6759288 0.1509487 1.0841789 4292931327
-1.3449223 0.5384146 2.7826211 4278576631
-1.789034 -0.46396783 2.4422171 4292929777
-4.305799 2.0792134 -5.5288506 4279708963
-7.2389235 1.5550109 -13.149154 4279709994
3.574152 -3.357125 12.568812 4292945954
-1.9756144 0.030979011 0.27718487 4293519353
-1.5425142 -0.065341972 2.350642 4278774266
-1.8348312 -0.22405747 1.0663214 4292816165
-4.3487616 1.5735143 -7.3210793 4280079065
-1.984832 0.10039423 0.51438785 4292929519
-4.1129494 2.5245636 -4.7309914 4280478718
-4.6386909 1.591163 -6.3568106 4292799213
-0.97338927 0.7125234 2.6428876 4278269751
-1.7290226 0.72089833 2.3473392 4292470270
-1.9045739 0.2943207 2.432173 4280150268
-1.7523848 0.081925265 2.4009452 4280477944
-1.0358899 0.050482403 2.2085538 4279365872
-1.3817648 0.71306318 2.2599373 4292864765
-0.75700146 0.76887709 2.0835307 4292752690
-0.73775411 -0.045820668 3.1651323 4279512362
-1.4033139 -0.19471148 2.313642 4293190901
-6.776176 1.3525435 -13.582186 4279316787
-1.5016083 0.08663737 2.2535853 4279976245
-1.5954971 0.22603172 1.3561184 4279777845
-1.7238888 -0.20624782 2.3986371 4280480511
-1.5871817 -0.40070331 3.8901908 4293191676
-1.3136816 -0.45349658 2.3161461 4292884792
-2.3090196 0.20016254 -0.031659823 4278970098
1.3665833 0.22641464 10.939988 4280216571
-1.0880049 -0.93899292 2.3257751 4292814377
-0.94072676 -0.4445349 2.2212217 4280362014
-1.2539366 -0.0353297 2.255162 4292945449
-1.8962313 0.2666885 0.8454265 4292620579
-1.7243807 0.20352198 0.70073682 4292812321
9.7407885 -12.346243 38.923508 4292750893
-1.2864563 -0.73775017 2.3377433 4292747034
-2.8004851 0.83431268 -1.5911036 4280103715
-1.2080389 -0.68037093 2.2953138 4279428856
-0.72591853 0.45006186 2.1033323 4291227637
-1.2004848 0.22183657 2.2390471 4280084731
-0.78853637 -0.24994294 2.179832 4292756542
-1.5491515 -0.041003566 2.3293197 4279296238
-1.0837598 -0.89422309 2.3221018 4293125364
-0.59174758 0.57612777 8.673193 4292797948
-0.71317846 0.68954712 2.0850852 4279181344
1.0849328 -1.2874326 8.9363804 4280348415
-1.3549616 0.73927552 2.2495778 4292491056
0.43401772 0.72203732 5.9244857 4278200355
-1.9152861 0.38477129 2.4178665 4279888637
-3.6597209 1.1445063 -3.518229 4279888123
-1.4539918 -0.94207561 2.4050231 4280624420
-3.8473737 1.0382251 -3.9318848 4290505470
-1.6480531 0.18177666 2.3622839 4293013297
-0.79586387 0.047686357 2.1525693 4279971882
-0.74741548 0.33599856 2.5289788 4292685600
-1.2511613 0.26144841 2.2485604 4279185699
-0.91861683 0.26170123 2.1682184 4293057771
-0.90160644 -0.59104896 2.9819992 4292733179
-1.1315104 -0.52292174 2.2734776 4280674556
-1.0384859 0.70370644 2.1707637 4279907379
-0.88285732 -0.36285147 2.1983874 4280478459
-8.3853273 3.6064236 -14.160789 4291373867
-1.9016532 -0.39593518 2.4732025 4292484641
-3.543921 1.6304216 -4.7933888 4292752934
-1.2046113 0.57577556 2.2235076 4292473593
-3.8746109 1.0477785 -5.0381627 4292816426
-1.7635247 -0.88641602 2.4646566 4293256956
-1.5723708 -0.74458867 2.395623 4292865788
-1.9295346 -0.65649951 2.4760969 4280366363
-1.0463089 0.38768688 2.1923895 4293257467
-1.1157155 -0.54899055 2.2710314 4292796915
-1.6342522 0.76607144 3.1507053 4285605677
10.884732 -5.7383504 30.957344 4280166178
-1.1505003 -0.84813905 2.3180592 4292684075
-3.543921 1.6304216 -4.7933888 4292799487
-0.19865304 0.28034785 4.3163195 4280084728
-1.0703518 0.42796171 2.1936038 4279689197
-0.80910492 0.30921131 2.1554294 4279775516
-1.1745422 -0.14425154 2.04057 4279364333
-0.75142312 -0.94621062 2.2813358 4292512389
-1.8796958 -0.39614904 2.4647737 4293015336
-1.854586 0.16921984 0.71527463 4279776297
-0.96560621 0.21997453 2.1723351 4290260012
-1.5600922 -0.70585489 2.3841145 4280084730
-2.8379982 0.70989591 -1.845735 4292555577
0.82665515 -0.029787049 5.3431282 4279968799
-1.9111757 0.1656709 0.63505709 4292947247
-1.5858645 -0.76057333 2.4048722 4279887612
-3.0526741 1.146768 -3.0647573 4292931839
-1.5789369 0.099602997 3.8102646 4293026146
-1.684424 -0.24477094 2.3993869 4280369457
-1.9293766 -0.72437698 2.4944847 4292997360
-0.51273251 -0.35083577 3.2462103 4292820789
-1.2079819 -0.7098937 2.2993848 4279297788
-0.3435576 -1.6919904 5.7657132 4293059568
-1.8773402 -0.65671301 2.470078 4292947238
-1.0818563 -0.22836469 2.2406428 4279248936
-1.7338965 -0.54059583 2.4236753 4280496172
-1.3935199 -0.26112407 2.1238477 4279886580
-1.5308411 -0.001585005 1.9333715 4279973689
-3.2419269 1.0130186 -2.5420377 4279683028
-1.4012842 0.27008694 1.3427268 4280149499
-1.2403468 0.55586791 2.2323401 4293145386
-1.3585678 0.062932007 2.287261 4279316523
-1.5337751 0.28225783 2.3267643 4293126395
-1.404902 0.2732617 1.5770298 4280295712
-0.33868197 -0.042518932 4.5857511 4292799228
-1.8772645 -0.67663217 2.4658499 4279642669
-1.6774079 -0.76926452 2.4225891 4280431920
-1.8965818 0.27719194 2.4214737 4292946466
-1.8327607 0.56410819 2.3935549 4293453816
-3.6597209 1.1445063 -3.518229 4279889403
-1.928544 -0.31049594 2.4658983 4280214518
2.1946003 -2.2766452 10.526323 4279708708
-0.75904363 -0.60167271 2.2126088 4280101161
-1.2079115 -0.015823429 2.2478604 4280294669
-1.573899 -0.6706214 2.3865373 4292012025
-1.6119348 -0.36769521 2.3894053 4280296740
-1.2215271 -0.36633885 1.9546221 4280344818
-1.5481786 -0.19119257 1.098942 4280295969
-1.4423032 -0.87621093 2.3740058 4293061886
-1.5482192 -0.74717891 2.3921101 4292884279
0.26633966 -1.2163107 8.1080446 4280103725
-1.5059063 0.18620972 2.5988176 4293127679
-1.6752992 -0.21210387 1.1173459 4293190131
-1.7440467 -0.83096588 2.4429498 4281016352
-1.5400211 0.62699473 2.3059676 4293406764
-1.7609317 0.25616235 0.78767204 4292819242
-1.2407486 0.60624075 2.230387 4291769376
-2.1302814 0.35852104 -0.24346116 4280513136
-1.7281257 -0.87881064 2.457387 4293062653
-1.8625212 0.046870783 1.6593591 4286790194
3.2596889 -4.2678938 17.159513 4292994547
-1.5501521 0.67310405 3.1740043 4292751665
-3.3922315 1.0156258 -3.9556115 4279951347
-5.9176054 3.8921423 -12.702448 4292818743
-1.6957046 0.76958424 2.3388083 4292405502
-1.9152131 -0.71481091 2.4833586 4293015336
-4.4402471 0.96904951 -4.2606459 4279313190
-1.1082225 -0.91866946 2.3442788 4292225570
-0.72675055 0.60498172 3.9374933 4278509815
-1.1217879 -0.27327979 2.2698572 4280427300
-3.0814981 0.62183523 -1.7606962 4280215547
-1.1219494 -0.61457229 2.2989588 4280425486
-1.6746647 0.10303256 1.6352005 4280085240
-1.0406263 -0.45458844 2.2241621 4280298541
-0.73035097 -0.58251911 2.2037799 4292615196
-1.272541 -0.36125609 2.2980707 4292994294
-1.9166789 0.014860577 2.4446535 4280493089
-0.50762343 -0.24176741 4.4160953 4280301113
-1.9955289 0.21011554 0.71560359 4278988846
-1.559682 -0.73035794 2.3947816 4279932362
-3.3824244 2.2326436 -5.0941496 4280166424
-1.8764452 -0.32691324 2.4510775 4293324537
-1.8401935 0.32005385 2.4086654 4292289056
-1.3751696 0.43757918 2.2697701 4293274926
-1.8621542 -0.012958995 2.4254949 4279888372
3.1782639 -4.8666515 17.808126 4280348671
-0.76725924 -0.91659874 2.276876 4280408555
-0.70000178 -0.94049925 2.2608147 4292228396
-1.5865135 0.63500291 2.3183088 4279821553
-1.5797775 -0.71671689 2.3914223 4292929519
-3.4587386 0.9189685 -2.8343313 4292683563
-1.2379775 -0.079062797 2.26999 4292489007
-0.78899682 0.44745338 2.1265028 4287948021
-1.8320303 0.26690879 2.4082367 4293207080
-1.0531093 -0.59381229 2.2656775 4292883235
-1.9322585 0.060764853 0.41826302 4280741375
-1.8182147 0.62022299 2.3793316 4292815656
-0.82811856 0.15366668 2.1480949 4292615194
-1.7294251 -0.17421722 2.3998291 4293193214
-1.5914788 -0.73128122 2.3887026 4278986281
-0.79586387 0.047686357 2.1525693 4279970330
-1.7144178 0.76147699 2.3407958 4292731380
-1.0756258 0.3944639 2.421067 4280058242
-1.0166024 0.42773286 1.3908113 4284821034
-0.74512517 0.71064448 2.0832899 4278661425
-1.678833 0.1422808 2.3661573 4292683813
-0.73035097 -0.58251911 2.2037799 4292619042
-1.0976105 -0.58938396 2.2783053 4292882472
-1.6615106 -0.33373848 2.0014894 4293195002
-1.9614359 0.16221051 0.5298577 4280082414
-0.8024981 -0.45268643 4.2636156 4293126137
-1.7144178 0.76147699 2.3407958 4292687916
-6.2454438 2.0715549 -11.314551 4280232232
-1.5370817 -0.35272157 2.3657639 4292685093
-1.3022013 -0.35324347 2.1572542 4292863999
-6.5254817 1.9083939 -9.161272 4280084733
-1.9079248 -0.053169813 2.4433141 4291552503
-2.108681 0.14476366 0.35021237 4279856217
-1.5898725 0.24263255 2.3450122 4292553765
-7.4500074 2.3446531 -16.724838 4291816446
-1.2248878 -0.71038926 2.3219185 4280216313
-1.5492702 -0.22347072 0.95692682 4280081892
-0.76711887 -0.28238767 2.1724744 4292801279
-0.73897946 0.73111856 2.0906434 4292405741
-1.3994192 0.42539743 2.2800093 4293143597
-0.88437694 0.25103864 2.1665435 4292224809
1.3752532 0.31290475 11.293834 4292751136
-0.75975537 0.053909615 2.1420357 4293205261
-3.1017478 0.64981848 -2.4975278 4280100390
-0.78158861 0.70647866 2.1008484 4292340477
-1.6646476 0.30611947 1.2324847 4279084709
0.39026803 0.38157377 5.3734703 4292750624
-1.4077644 -0.57654196 2.3443069 4280082936
-2.3502011 0.22745994 -0.12633422 4282129686
-1.4611943 0.51485038 2.18204 4279119916
-1.1829542 -0.14326161 2.9977999 4279495676
-1.8437127 0.29233667 2.4115376 4292995837
-1.2476059 0.30181479 2.2457402 4292011243
-3.3927395 0.72862965 -2.9536285 4280017908
-1.8877906 0.59334642 2.3963721 4292831317
-1.0907526 0.13752323 2.2180829 4292993263
-1.6741259 0.31587803 0.97533953 4279444772
-1.5094388 -0.96229994 2.4156456 4281017636
-1.0898566 -0.55090523 2.2731116 4280019710
-1.6846884 -0.10103295 0.88382 4280347646
2.525696 -4.5008945 18.158876 4279429628
-1.0535196 -0.56514198 2.2531285 4292098360
-0.97338927 0.7125234 2.6428876 4278315516
-0.75522643 0.70118827 2.0936527 4292553515
-1.8878329 -0.69765562 2.4763472 4292879140
-1.4605119 0.21264371 1.8739238 4279970602
-1.6164651 -0.71456641 2.4027505 4291312174
-1.7628034 -0.48306412 2.4408607 4282641407
-0.91108322 -0.79569048 2.2806976 4292949815
-1.7480288 0.33501789 1.3258719 4279690999
-1.066138 -0.57758987 2.2665029 4279445027
-1.0638915 0.76579994 2.1819293 4279363056
-1.7088065 0.320784 1.0804219 4278921509
0.49426726 -0.5980711 8.6467047 4279381288
-4.1129494 2.5245636 -4.7309914 4280477158
-0.80382842 -0.53738344 2.2021499 4280022271
-0.77287024 0.09940929 2.9243608 4279186479
-1.9145002 0.0084202234 0.52956122 4280413695
-0.72675055 0.60498172 3.9374933 4278512380
-1.5531858 0.58545226 2.3058469 4278643710
-1.8118985 0.057360098 0.5267477 4292685088
-1.8614398 0.26144433 1.3362651 4279189813
-1.5255321 -0.43526363 1.9960524 4280406221
18.438793 -7.5430217 43.358158 4280608245
-1.7699356 -0.85019827 2.4624734 4291636514
-1.5675025 0.62832004 2.3105574 4293391358
-1.9767722 -0.69240165 4.4121623 4285604115
-0.80072737 -0.62347096 2.6648242 4280231702
-0.88285732 -0.36285147 2.1983874 4280478198
-1.8844967 -0.066634871 2.4371958 4293272870
-2.9520264 0.74225312 -2.532434 4280543218
-1.7303511 0.10213354 2.3846257 4293192444
-1.7263587 0.19623189 1.6925319 4279448113
-1.8629969 -0.031215636 2.4315817 4293211190
-1.5125526 0.62664193 2.3000085 4290717996
-1.8796111 -0.70210958 2.4741991 4292995325
-4.9177766 2.6898708 -8.5805387 4280046659
-1.5472121 -0.68939155 2.3872671 4292815392
-1.677389 0.11550727 2.3773084 4292949547
-1.0501506 -0.1975942 2.2357237 4293142298
-1.6918141 0.47400367 2.3576469 4293061372
-5.5485468 2.016114 -8.5457125 4280225550
1.0602599 -0.040508602 7.6513734 4279231210
-1.8719343 -0.13514844 0.91263849 4280608754
-1.8222252 0.58503491 2.3842537 4293077550
-1.2314975 -0.75591862 2.3206232 4292423984
-2.2832847 -0.77893281 2.6232002 4279885543
3.1782639 -4.8666515 17.808126 4280347644
-1.5322039 0.29537782 1.3771709 4278907383
-1.7743559 0.17137432 0.9392243 4286523169
-1.8744456 -0.474381 1.4115347 4280734425
-1.7889585 -0.92542952 2.4842188 4280151039
-1.6211021 -0.031914946 0.83683187 4280101914
-3.9093893 1.3958771 -5.727231 4280036907
-1.0506343 -0.53314853 2.2534759 4280543743
-1.6968801 0.41080695 2.3617246 4279098852
-1.5425142 -0.065341972 2.350642 4278721304
-1.8456436 0.1546866 1.0219133 4279358163
-0.90756661 -0.037163049 2.1801281 4293280064
-3.9611571 0.18733759 -4.2379899 4280150007
-1.0830685 0.081859767 2.5248663 4279428599
-2.4451437 0.596587 -1.0810249 4280670685
-1.4191029 0.46789995 2.2861276 4293210925
-14.141414 3.2290082 -49.991375 4279691001
-1.0663803 0.71685576 2.1785104 4291962927
-0.79615289 0.70117593 2.1028187 4292142585
-0.72483003 -0.96071184 2.2824936 4280149483
-1.7109156 -0.49877653 2.4127984 4292799743
-1.7129234 0.72758424 2.3454475 4292407804
-1.8182147 0.62022299 2.3793316 4292863219
-1.3927006 -0.89709663 2.3620028 4292734205
-1.8820002 0.63230532 2.3952599 4292601343
-8.6153841 3.3618219 -15.912938 4279756533
-1.7393477 0.40300512 2.3784716 4279839274
-2.0832372 0.16348261 0.40668118 4280218619
12.822408 -1.5650847 116.15736 4280151022
-1.76764 -0.24946891 2.4240048 4279297785
-0.95379823 -0.41953817 2.2346201 4292550165
-1.7044002 0.15817609 2.3765588 4292010740
-2.8793209 0.86234277 -5.5870404 4280280304
-1.1357113 -0.57956475 2.2670622 4280542956
-1.404902 0.2732617 1.5770298 4280346879
-1.2078781 -0.015285354 2.2450988 4280299562
-1.5675025 0.62832004 2.3105574 4293340205
-0.88437694 0.25103864 2.1665435 4292275195
-1.1745777 0.36973107 4.9276099 4291831588
-1.8864441 -0.70918357 2.4539468 4280281579
-1.9437487 -0.70031089 2.48982 4280363299
-1.6076981 0.33644104 0.9736014 4279773995
10.227837 -11.541217 29.597107 4279376406
-1.9192008 0.079527579 0.50949043 4280428586
-1.7092626 -0.91134685 2.4481401 4280495658
-0.6352694 0.39556986 2.0635786 4292207865
-0.90941668 0.59401727 2.1637912 4292665058
-3.8871315 1.1554475 -2.504199 4283776558
-1.6021481 0.044006806 0.96318305 4280216301
-1.7325151 0.20964214 1.0891985 4279709731
-3.5660024 1.2639512 -3.9866531 4280033823
-0.72537565 0.42187166 2.1059167 4290963710
-1.8771987 0.10472211 1.1145141 4293189877
-1.3819253 -0.54224533 2.3336079 4293126653
-0.35886809 -0.97611082 2.2771835 4281461759
-4.8055549 2.6228526 -8.6839666 4292603629
-1.3837036 0.77777129 2.2495065 4279704082
-1.5535231 0.3061229 2.3279192 4293143325
-0.66756266 0.90539205 4.6256409 4279817175
-1.3501868 0.38456461 2.2701089 4279231215
-1.5206206 0.28511873 2.3021798 4280213486
1.0446628 0.047184139 4.9239612 4279082911
-0.8606143 -0.81426638 2.2703912 4280084734
-0.38286206 0.86361635 2.0275517 4290242039
-0.91237414 0.54471058 2.1519289 4292420114
-1.7092998 0.40629789 2.3681934 4290843400
-3.5660024 1.2639512 -3.9866531 4280085743
-1.787788 -0.098867565 0.77918047 4280478973
-1.2407486 0.60624075 2.230387 4291815675
-0.83268362 -0.33770442 2.7143826 4280230174
-1.2353276 0.054217454 1.1907327 4292552994
-0.61369902 0.49142846 3.7936225 4279627516
-1.5503216 0.25463554 1.9348773 4280414207
-1.3607088 0.47716096 1.8190571 4279881936
-3.1807375 0.98494965 -3.1200342 4279886830
-1.286574 -0.42387962 2.30252 4291095549
-0.83268362 -0.33770442 2.7143826 4280281083
-0.76198786 -0.22948837 2.1752973 4292995065
-0.88971883 -0.3863923 2.2127755 4292812062
-3.1807375 0.98494965 -3.1200342 4279836692
-0.9297269 -0.37007082 2.219574 4292617763
-1.1357113 -0.57956475 2.2670622 4280543997
-1.559682 -0.73035794 2.3947816 4279905326
-0.91734356 -0.0642979 2.1835122 4292491315
-0.22258084 -0.99548709 9.3143969 4280541413
-0.42450598 0.79065174 2.0657721 4291897378
-2.2336874 0.17863058 0.47725978 4278596640
-1.5337751 0.28225783 2.3267643 4293081386
-1.6789412 0.43290505 1.2821412 4279824368
-1.6027066 -0.74605519 2.4038844 4290852652
-3.1720963 0.70408273 -6.0109491 4292834685
-0.58911014 0.37758449 1.5697968 4285871395
-1.0852586 0.46022746 2.2004774 4293208867
-1.4159287 0.39821392 2.2876959 4292487202
-1.7467548 -0.86251241 2.4476943 4292029728
-3.1379638 0.62717766 -2.1909664 4291834413
-1.2106797 -0.059054334 2.260298 4280409819
-1.573899 -0.6706214 2.3865373 4291961377
-0.62747782 -0.59130204 2.1339357 4292420644
-1.5994686 -0.079850391 2.3602381 4292096291
-2.3090196 0.20016254 -0.031659823 4278923310
-0.88664752 0.55628848 2.1406844 4291949038
-3.2409165 1.2002881 -3.4836776 4280540909
-1.5954249 -0.39211628 2.3807561 4293124065
-0.47223514 0.18706541 1.5399663 4294307837
-1.6027066 -0.74605519 2.4038844 4290868605
-1.9151701 0.46393493 0.040959165 4280969845
-1.3270141 -0.35001552 1.7144433 4280147955
-1.0228661 0.25354096 0.78309715 4286639856
-1.8939536 0.30835691 2.4212565 4293258235
-1.1499331 0.33550036 1.7918011 4278925111
-1.2476059 0.30181479 2.2457402 4292012542
-2.3118193 -0.80507648 2.6415577 4280279530
-0.75700146 0.76887709 2.0835307 4292754487
-0.075141191 0.67694646 2.3176823 4286065423
-4.4325786 1.0214791 -11.463599 4279578931
-4.1637778 1.3298706 -2.9190505 4282640379
-1.3517751 0.22524191 2.9196308 4280080095
-0.52082753 0.006323216 1.5456852 4282901496
-0.74971223 0.76929551 2.0949903 4292751151
-1.7360374 0.64672101 2.1764848 4278921769
-1.3774531 -0.92879337 2.3905308 4293061353
-1.0346398 -0.97743142 2.314091 4280292623
-1.8401935 0.32005385 2.4086654 4292289051
-0.17994186 0.63092721 1.5909119 4285540389
-1.222502 0.22952403 2.2442183 4293321460
-0.94381142 -0.71716821 2.2593746 4292799487
-1.1801057 0.39617711 0.69546509 4279186231
-1.7908823 0.20428251 1.7660592 4279823357
-1.4195223 -0.88619119 2.3610969 4279495167
-0.8919763 -0.74211192 2.2621689 4292816931
-0.78158861 0.70647866 2.1008484 4292290342
