# .PCD v0.7 - Point Cloud Data file format
VERSION 0.7
FIELDS x y z rgb
SIZE 4 4 4 4
TYPE F F F U
COUNT 1 1 1 1
WIDTH 1114
HEIGHT 1
VIEWPOINT 0 0 0 1 0 0 0
POINTS 1114
DATA ascii
-20.6206 -3.5778515 18.979307 4288847252
-18.445751 -3.4340115 17.225229 4289502861
-15.280242 -3.1334703 14.549007 4290093970
-11.584428 -2.8483231 11.422338 4288319877
-11.049411 -2.9296999 11.085657 4288714119
-4.522037 -2.3676686 5.2262154 4289041790
-4.6824956 -2.4148483 5.4186516 4288779651
-4.6876845 -2.4278765 5.4543829 4288452491
-4.8018241 -2.4657037 5.6022801 4288188547
-4.5159521 -2.42908 5.3467684 4288321417
-4.5417218 -2.4483223 5.4048367 4288452742
-4.5781016 -2.4707654 5.4748788 4288060817
-4.609817 -2.4922726 5.5407238 4287929750
-4.6339469 -2.5121307 5.5992241 4287929752
-4.614212 -2.5199928 5.6109114 4288192665
-4.6489911 -2.5433693 5.6821332 4288456352
-4.6639113 -2.5614333 5.7324414 4288785063
-4.6714106 -2.5775979 5.7751679 4288392361
-4.6955557 -2.5988953 5.8368878 4286944915
-4.6645584 -2.603976 5.8377247 4287077016
-4.673707 -2.6211393 5.8836823 4287076249
-4.6460958 -2.6271377 5.8885283 4286945433
-4.6449175 -2.6413007 5.9235206 4286683286
-4.6148057 -2.6465409 5.9257598 4287142554
-4.5531588 -2.6418464 5.8916535 4287338909
-4.2872744 -2.5710495 5.6192756 4284508517
-4.3047996 -2.591233 5.675571 4284967252
-4.2898498 -2.6002147 5.69383 4285099091
-4.2805219 -2.6113451 5.7191 4284770639
-4.1280222 -2.5584598 5.564887 4291879896
-4.1140919 -2.5672486 5.5838075 4290895086
-4.1008172 -2.5763569 5.6037683 4290895085
-4.0864816 -2.5852237 5.6227093 4290829546
-4.0724754 -2.5939927 5.6421347 4290829290
-4.0569367 -2.6025963 5.6600747 4290829546
-4.0424471 -2.6111276 5.6792607 4290829290
-4.0264807 -2.619612 5.6970692 4290698733
-4.0120702 -2.6282811 5.7168136 4290764269
-3.9958832 -2.6370025 5.7349105 4290895341
-3.9805374 -2.6460328 5.7542748 4290960879
-3.9655781 -2.6554258 5.7744689 4291026669
-3.907901 -2.6361594 5.7323108 4281683803
-3.8774834 -2.6347101 5.7295671 4279773489
-3.8619623 -2.6438644 5.7492056 4279904047
-3.8461816 -2.6527236 5.7686024 4279838250
-3.8295636 -2.6612158 5.7870741 4279904554
-3.812748 -2.6697946 5.8055825 4279969834
-3.7956238 -2.6780984 5.8237891 4280035372
-3.7780914 -2.6864128 5.8417497 4280035630
-3.7606919 -2.6947184 5.8600559 4280035376
-3.7429101 -2.7031662 5.8782239 4279904039
-3.7254033 -2.7118967 5.8970842 4279969832
-3.7080262 -2.7207012 5.9163537 4279904045
-3.6909001 -2.729789 5.9363089 4279969577
-3.6735713 -2.7389419 5.9563012 4279510564
-3.6238534 -2.7241867 5.9238567 4291290087
-3.6061735 -2.7332964 5.9435725 4290829291
-3.5854142 -2.7414913 5.9593215 4280432963
-3.5647686 -2.7471015 5.9737287 4280233265
-3.5458219 -2.7557397 5.9922829 4280103729
-3.5173583 -2.7572434 5.9950504 4290959589
-3.4987724 -2.7656083 6.0142088 4290763497
-3.4799154 -2.7735608 6.0329976 4290763497
-3.4563177 -2.7793443 6.0448165 4286356393
-3.4295983 -2.7833652 6.0517888 4279253045
-3.4104323 -2.7924139 6.0715137 4279448883
-3.391289 -2.8011425 6.0912929 4279644970
-3.3671625 -2.8065851 6.102879 4291092450
-3.3482938 -2.8165212 6.1242757 4290698473
-3.3096354 -2.8109813 6.1103301 4282144610
-3.2842982 -2.8158035 6.1202936 4279971122
-3.2640555 -2.824621 6.1396751 4279970095
-3.2433906 -2.8332376 6.1586223 4280035372
-3.2224905 -2.8418498 6.1775074 4279838250
-3.2012358 -2.8503029 6.196063 4279772711
-3.1797862 -2.8587136 6.2145753 4279641642
-3.1581135 -2.8671963 6.2330909 4279773229
-3.1363375 -2.8756754 6.2517114 4279772716
-3.114346 -2.8841336 6.2702775 4279839278
-3.0924263 -2.8925433 6.2891507 4279773487
-3.0704122 -2.9013083 6.3084173 4279839534
-3.0481827 -2.9100776 6.3276567 4279970605
-3.0229282 -2.9154317 6.3404322 4279775020
-2.9856551 -2.9129117 6.3308625 4290632165
-2.9636185 -2.9220722 6.3512249 4290895336
-2.9354494 -2.9253721 6.3587809 4280038197
-2.9119754 -2.933285 6.3766313 4280102451
-2.8888259 -2.9417927 6.3956604 4280036658
-2.8653173 -2.9500644 6.4142613 4279840303
-2.8403113 -2.9575176 6.4303341 4284314227
-2.8155026 -2.9651847 6.447094 4288197308
-2.7891135 -2.970855 6.4601784 4279973682
-2.765671 -2.9797823 6.4804244 4279972906
-2.7413177 -2.9887729 6.4996862 4280366387
-2.7134137 -2.9962726 6.5127501 4290303197
-2.6891265 -3.0045733 6.5320535 4290567401
-2.6602571 -3.0067775 6.5395956 4283921012
-2.6280575 -3.0126531 6.5454016 4280037937
-2.6030989 -3.0214021 6.5647621 4280168495
-2.5778489 -3.0298626 6.5837212 4280102447
-2.5523329 -3.0383492 6.6025848 4279971120
-2.5265627 -3.0467362 6.6212583 4279970866
-2.5005832 -3.0550516 6.6398315 4280102448
-2.4743743 -3.0632541 6.6582336 4280036910
-2.4480612 -3.0717032 6.6769867 4280167729
-2.421536 -3.0800798 6.6956329 4280233776
-2.394901 -3.0887094 6.7146373 4280233267
-2.368011 -3.096859 6.7330856 4280167987
-2.3410044 -3.105113 6.7517433 4280234290
-2.3073089 -3.1062071 6.7528906 4283328871
-2.2795529 -3.1167114 6.7729473 4290566629
-2.2518704 -3.1242139 6.7905474 4291223789
-2.2239585 -3.1356542 6.8119178 4280038710
-2.1962228 -3.1442947 6.831181 4280170293
-2.1670377 -3.1487925 6.844161 4280169777
-2.1383746 -3.1569209 6.8619189 4287408293
-2.1099603 -3.1663332 6.8817229 4290305256
-2.0813422 -3.1744206 6.9001565 4290238951
-2.0525284 -3.1824944 6.9185543 4290172132
-2.0237496 -3.1915474 6.9383659 4290169816
-1.9942209 -3.1993234 6.9558387 4279841578
-1.9645659 -3.2094934 6.9759536 4290697954
-1.9346304 -3.2164557 6.9924688 4290170587
-1.9044094 -3.2316675 7.0177407 4279708461
-1.8743818 -3.2396519 7.0359049 4279772710
-1.8441654 -3.2475941 7.054008 4279837989
-1.813835 -3.2558043 7.0725365 4279640867
-1.7831751 -3.2635872 7.0903058 4279444516
-1.7523819 -3.2715557 7.1083713 4279378982
-1.7213993 -3.2794824 7.1263709 4279444264
-1.6902158 -3.2873673 7.1442795 4279509799
-1.6587687 -3.2949243 7.161633 4279444261
-1.6271927 -3.3026235 7.179244 4279378977
-1.5954635 -3.3103197 7.1968961 4279574821
-1.5634638 -3.317662 7.2139244 4279706660
-1.5300078 -3.321106 7.2235165 4279511844
-1.4976385 -3.3374217 7.2515802 4289908191
-1.4646407 -3.3429747 7.2653775 4290105314
-1.432559 -3.3548505 7.289443 4279642405
-1.3999681 -3.3628845 7.3079939 4280366382
-1.3686166 -3.3780689 7.3389144 4290104024
-1.3348024 -3.3829224 7.3515601 4289840856
-1.3021252 -3.3928919 7.3737869 4282340440
-1.2694153 -3.4030621 7.3967028 4281090880
-1.2356875 -3.4120724 7.4162722 4288526797
-1.202306 -3.4209864 7.4369335 4290301926
-1.1685598 -3.4305365 7.4581189 4279512870
-1.1372926 -3.4597223 7.5132556 4289908185
-1.1023397 -3.4664125 7.5289273 4289710811
-1.0673275 -3.4734595 7.5453429 4289710811
-1.0321674 -3.4805586 7.5618725 4289645018
-0.99705857 -3.4888084 7.5806289 4289579224
-0.96101338 -3.4929359 7.5913644 4289316823
-0.92558146 -3.5012875 7.6103015 4289119443
-0.88965404 -3.50755 7.6252537 4289053392
-0.85337073 -3.512358 7.6374111 4288987342
-0.81632662 -3.5141604 7.6431789 4289445581
-0.78260499 -3.5540209 7.7186785 4282862658
-0.74620569 -3.5623477 7.7379494 4283125311
-0.70921564 -3.56756 7.7510362 4282599224
-0.67413527 -3.5881882 7.7953181 4281348128
-0.63705933 -3.595242 7.8124166 4280624663
-0.59964859 -3.6021042 7.8287325 4280035089
-0.5159331 -3.4759035 7.4851966 4286222736
-0.48057196 -3.4818268 7.5015469 4286287768
-0.44440848 -3.4869857 7.5147014 4286221975
-0.40887809 -3.4940901 7.5335937 4286090646
-0.55724311 -4.0066123 9.0264492 4280233784
-0.49288854 -3.9460227 8.8551311 4279377956
-0.44874328 -3.9494343 8.861721 4279443236
-0.40686917 -3.9572017 8.8839378 4279377695
-0.36088765 -3.9565175 8.8773994 4279311908
-0.31692785 -3.9591804 8.8837624 4279376932
-0.27124253 -3.9582331 8.8774481 4279376673
-0.22720382 -3.957994 8.8778019 4278916117
-0.17697354 -3.9353473 8.8106956 4278389258
-0.13233832 -3.9350126 8.8077154 4278455049
-0.089236021 -3.9404197 8.8223238 4278652685
0.87431657 -0.15236115 -0.24815017 4284967530
0.8824119 -0.15022583 -0.2580846 4292695625
0.84596854 -0.15177158 -0.22520322 4284108615
0.85374194 -0.14974834 -0.23475198 4284246627
0.8671332 -0.14716658 -0.24994141 4285231426
0.87200594 -0.14525014 -0.25702402 4286539386
0.84614509 -0.14615296 -0.23372994 4285292874
0.8628099 -0.14318895 -0.25244716 4287543359
0.91094828 -0.13950197 -0.29057547 4286541961
16.930523 0.39028898 -12.149677 4284369987
18.730602 0.64162689 -13.672181 4285222976
22.643242 0.99759972 -16.789892 4286407762
31.753572 1.280894 -23.57719 4285095770
41.570484 1.7545109 -31.069462 4284632640
81.480225 4.0304995 -61.697887 4285948248
89.096443 5.5552797 -68.608765 4285361013
-256.57031 -13.964706 197.1114 4284632126
-58.688789 -3.4177401 45.514301 4286540896
-58.493355 -3.8519623 45.862354 4285887611
-32.708172 -2.2299116 25.846581 4284698174
-19.088781 -2.0802162 15.768785 4286543215
-10.092287 -3.1081054 9.684248 4289698437
-9.9473295 -3.1033547 9.6046915 4290681213
-9.7007465 -3.070085 9.4279022 4292849808
-9.8313055 -3.0681474 9.5678711 4290417780
-9.4504251 -3.0134807 9.2701683 4291468149
-1.7551944 -0.85209632 1.8736507 4286277463
-2.0158541 -0.85869896 2.108048 4287925111
-2.0526443 -0.88699484 2.161356 4285556042
-2.9133878 -1.0257199 2.9667108 4288119913
-344.00931 -42.671974 296.63882 4284238137
-53.566071 -7.7748227 47.322311 4289565821
-82.395836 -10.661695 71.9916 4284634952
-48.46064 -6.9452829 43.066486 4288778621
-28.64003 -4.9219785 26.206972 4290156154
-20.102859 -3.3932405 18.442835 4288584326
-19.853207 -3.4151819 18.331793 4288912526
-17.638472 -3.2830477 16.543066 4289437587
-14.497007 -3.02056 13.896883 4289962642
-11.568375 -2.8304493 11.439973 4288582017
-11.133645 -2.9878783 11.234721 4289764234
-4.5113845 -2.3405468 5.2160811 4289239170
-4.7681108 -2.4076269 5.5063047 4288844160
-4.7859764 -2.4235358 5.555491 4288780168
-4.8545127 -2.4507532 5.6571188 4288320647
-4.5254207 -2.4057078 5.357204 4288452746
-4.5866432 -2.4340003 5.4528613 4288386691
-4.6262116 -2.4570658 5.5265708 4288190860
-4.6539798 -2.4773517 5.5885062 4287863958
-4.6862426 -2.4992731 5.6560483 4288060824
-4.7004085 -2.5166013 5.7048073 4287995547
-4.7271957 -2.5377152 5.7679033 4288324254
-4.7322664 -2.5530069 5.8079405 4288588196
-4.7692223 -2.5776608 5.8836422 4289706682
-4.7591066 -2.5890391 5.9080029 4287207574
-4.7815056 -2.6100547 5.9689608 4287932068
-4.7631927 -2.6192217 5.9848714 4286945433
-4.7174649 -2.6200535 5.969872 4287010712
-4.7440095 -2.6427867 6.036983 4287010968
-4.7163577 -2.6490765 6.0427608 4288721588
-4.6433682 -2.6415014 5.996418 4287339675
-4.3087525 -2.5510993 5.6450291 4284836970
-4.3233442 -2.5699718 5.6979671 4284901201
-4.3137445 -2.5808115 5.7227674 4285230422
-4.3156724 -2.5958924 5.761764 4284967762
-4.1329598 -2.5335453 5.5714822 4291879639
-4.1191959 -2.5422254 5.5905995 4290960623
-4.1059647 -2.5512428 5.6106448 4290894829
-4.091784 -2.5600145 5.6297808 4290829292
-4.076859 -2.5686564 5.6482716 4290698475
-4.0618038 -2.5772095 5.66677 4290829550
-4.0476317 -2.5856748 5.6863413 4290764013
-4.0311112 -2.5939977 5.7035613 4290830063
-4.0154343 -2.6025205 5.721971 4290830062
-4.0006404 -2.6112146 5.7416158 4290895342
-3.9844723 -2.6201131 5.7601147 4290829548
-3.9702213 -2.6294818 5.781147 4291158000
-3.9139407 -2.6107295 5.7407107 4281947493
-3.8829515 -2.6091185 5.737289 4279773738
-3.8675177 -2.6181335 5.757041 4279706922
-3.8514779 -2.6268721 5.7761812 4279904298
-3.8348889 -2.6353352 5.794764 4280035626
-3.8181016 -2.6437798 5.8133216 4280035118
-3.8005793 -2.6518581 5.8310466 4280035626
-3.7831419 -2.6601303 5.8491826 4280035116
-3.7652092 -2.6682923 5.8668971 4279904302
-3.7478583 -2.6766586 5.8855982 4280035113
-3.730479 -2.6853101 5.904655 4280035113
-3.7127025 -2.6939898 5.923492 4279838766
-3.6956406 -2.7029953 5.943573 4279969584
-3.6783495 -2.7120438 5.9636478 4279773485
-3.6287408 -2.6976416 5.9314933 4291420904
-3.6109426 -2.7065408 5.9510441 4290829806
-3.5905633 -2.7145822 5.9672351 4280236869
-3.5698943 -2.7201345 5.9816718 4280233268
-3.5508201 -2.7286005 6.0000691 4280432437
-3.5225585 -2.7303853 6.0033164 4291092716
-3.5040185 -2.7388783 6.0227275 4290829545
-3.4823411 -2.7458997 6.0375972 4283528316
-3.4533768 -2.7470798 6.0398746 4279711029
-3.4345236 -2.7560415 6.0597963 4280168242
-3.4151821 -2.7648606 6.0792656 4280298801
-3.3959422 -2.7737515 6.0991507 4279840553
-3.3714001 -2.779037 6.110199 4291422182
-3.3527732 -2.7888489 6.1319323 4290829290
-3.3133988 -2.7827454 6.1166897 4282407782
-3.2887807 -2.7883599 6.1281948 4280036912
-3.2684963 -2.7969983 6.1475158 4280101681
-3.247793 -2.8054521 6.1664152 4279839534
-3.2267885 -2.8140061 6.1852412 4279970349
-3.2054057 -2.8225172 6.2037888 4279904042
-3.1838593 -2.8309188 6.2222862 4279970095
-3.1622469 -2.8390155 6.2407165 4279969837
-3.1404433 -2.8474474 6.2593846 4279773487
-3.1184163 -2.8558576 6.277987 4279904561
-3.0964336 -2.8642912 6.296916 4280035887
-3.0743618 -2.8730872 6.3162537 4279970609
-3.052192 -2.8816073 6.3355107 4280036402
-3.0236487 -2.8847363 6.3421898 4280104243
-2.989459 -2.8843009 6.3384433 4290829033
-2.9673848 -2.893328 6.3587813 4290894827
-2.9393198 -2.8965342 6.3664908 4280301111
-2.9157927 -2.9042408 6.3842282 4279709222
-2.8928156 -2.9130216 6.4038477 4279577631
-2.8687782 -2.9206009 6.4212742 4280234287
-2.8447857 -2.929466 6.4400535 4280299829
-2.8210621 -2.9381921 6.4593778 4281091652
-2.7926924 -2.9437299 6.4696245 4290828772
-2.768837 -2.9522793 6.489109 4291354351
-2.7444208 -2.9588349 6.5063887 4280169015
-2.7166996 -2.9664855 6.5199523 4290696929
-2.6923754 -2.974833 6.5393758 4290829030
-2.6629982 -2.9814544 6.5500278 4280565568
-2.6313665 -2.9830313 6.5530815 4280103474
-2.6062689 -2.9913714 6.5720167 4280233522
-2.5810373 -2.9999862 6.5912781 4280167474
-2.5554724 -3.0083537 6.6101027 4279971120
-2.529629 -3.016526 6.628612 4279905326
-2.5036025 -3.0247095 6.6471343 4280036655
-2.4773986 -3.0330513 6.665812 4280102192
-2.4510183 -3.0415034 6.684607 4279971377
-2.424403 -3.0496013 6.7029986 4279905583
-2.3976877 -3.0579298 6.7217402 4280036656
-2.3707447 -3.0659709 6.7401457 4280036657
-2.3437109 -3.0742915 6.7589679 4279972400
-2.3100045 -3.0751641 6.7599483 4283788649
-2.2823613 -3.0860336 6.7806983 4290435559
-2.2547128 -3.0936942 6.7986612 4290764010
-2.2264721 -3.1042361 6.8187609 4280102967
-2.1986742 -3.1126926 6.8378901 4280037164
-2.1694956 -3.1180913 6.8519096 4286815126
-2.1406651 -3.1261003 6.8694139 4290763753
-2.1121533 -3.1339912 6.8876595 4290370022
-2.0835044 -3.1419926 6.9060974 4288725454
-2.0547009 -3.1515374 6.9261937 4284384139
-2.0259221 -3.1593921 6.9449186 4290303203
-1.9977475 -3.1718519 6.9699574 4279184417
-1.966821 -3.1775017 6.9831495 4290303715
-1.936632 -3.1837897 6.9986262 4289711065
-1.9066429 -3.1994627 7.0250168 4279643179
-1.8766105 -3.2074535 7.0433478 4279706664
-1.8463475 -3.2153087 7.0614367 4279378470
-1.815872 -3.2231216 7.0794177 4279444007
-1.7853228 -3.2312613 7.0979724 4279509542
-1.754306 -3.2385926 7.1150517 4279444260
-1.7232052 -3.2462006 7.1326203 4279509539
-1.6919787 -3.2539785 7.150485 4279378725
-1.6606449 -3.2619572 7.1687293 4279575074
-1.628873 -3.2690537 7.1854019 4279509538
-1.5971509 -3.2768233 7.2033267 4279378468
-1.5651727 -3.2842989 7.2207332 4279509540
-1.5314553 -3.2930369 7.236474 4280103724
-1.4993129 -3.3039119 7.258503 4289908187
-1.4664599 -3.3100524 7.27351 4289907674
-1.4347844 -3.3236222 7.3008437 4279445797
-1.4023532 -3.3337059 7.3226337 4289840849
-1.3701676 -3.3444481 7.3462911 4289775320
-1.3361335 -3.3491292 7.3583946 4280893260
-1.3042065 -3.3609607 7.3849988 4279838756
-1.2704391 -3.3678093 7.4013333 4279904809
-1.2381961 -3.3811338 7.4303541 4279842352
-1.2037771 -3.3863273 7.4437919 4289710039
-1.1697711 -3.3959408 7.4646955 4279118369
-1.1386433 -3.4250739 7.5205369 4289973722
-1.1046208 -3.4364285 7.545311 4289579223
-1.0693412 -3.4423916 7.5598278 4289579223
-1.0337209 -3.4474208 7.572494 4289513428
-0.99828207 -3.4541383 7.5884295 4289447638
-0.96286047 -3.4618659 7.6063247 4289119188
-0.927338 -3.4699979 7.6250324 4288987343
-0.89119369 -3.4753215 7.6382852 4288856010
-0.85503954 -3.4812653 7.652822 4288724171
-0.81862861 -3.5053806 7.6960244 4285759365
-0.78415304 -3.5221019 7.7334828 4283125315
-0.74728441 -3.5276146 7.7472634 4282927935
-0.71033561 -3.5334389 7.7617116 4282598971
-0.67499191 -3.5522563 7.8027496 4281216802
-0.63778836 -3.5588074 7.8188906 4280821530
-0.60031897 -3.5653119 7.8346581 4280231193
-0.51201302 -3.4299026 7.4590268 4286288787
-0.47709358 -3.4365568 7.4777212 4286091156
-0.44091928 -3.441319 7.4899144 4286025363
-0.40562487 -3.4486587 7.5097523 4286286994
-0.54690182 -3.9345427 8.9460726 4279904559
-0.48841831 -3.8926346 8.8249388 4279509289
-0.44394583 -3.8948326 8.8277998 4279442983
-0.40103915 -3.9000275 8.841486 4279442467
-0.3568846 -3.9025531 8.8463602 4279377189
-0.31213951 -3.9031973 8.8457098 4279377189
-0.2682212 -3.9055266 8.8511896 4279180320
-0.22199081 -3.8990464 8.8308744 4279112980
-0.17123982 -3.8745532 8.7565918 4278455048
-0.12743697 -3.8757322 8.7587709 4278520842
-0.086475052 -3.8865929 8.7920904 4278652686
0.88238889 -0.15376577 -0.25589848 4284837033
0.88672322 -0.15195955 -0.26226124 4292056388
0.86034757 -0.15258366 -0.2390548 4286750065
0.86323428 -0.15093593 -0.24400416 4287663942
0.87274134 -0.14871891 -0.25545686 4285100098
0.88586086 -0.1460765 -0.27072802 4289159506
0.85146976 -0.14762747 -0.23901947 4284632929
0.86733967 -0.14481221 -0.25698033 4287279230
0.90664053 -0.14181432 -0.28799951 4288778080
17.84903 0.40225986 -12.874816 4284501571
18.703537 0.57695621 -13.668543 4285157183
22.145811 0.94892359 -16.477493 4286341458
26.354319 1.3521889 -19.875914 4285951336
42.08551 1.7156237 -31.561865 4284304961
73.488914 3.4670014 -55.768707 4285947477
91.346481 5.4769964 -70.505432 4285427060
-240.52623 -12.524751 185.22874 4284304444
-65.906258 -3.637665 51.180103 4286342745
-57.497749 -3.5573962 45.116528 4285887612
-32.742901 -2.1092823 25.898884 4284371009
-19.277298 -2.0056038 15.921892 4286543212
-10.024636 -3.0484066 9.6260815 4289828737
-9.9366522 -3.052536 9.596159 4290484605
-9.5956879 -3.0051169 9.3356533 4292651142
-9.8035917 -3.0244238 9.5495787 4290878078
-9.3733683 -2.9646876 9.2082968 4291336309
-5.3078361 -1.8702965 5.3443446 4291538061
-1.9659362 -0.85126698 2.0668318 4284897614
-1.97664 -0.87200564 2.0942209 4285620046
-2.8623171 -1.0078212 2.9226487 4288383341
-152.49792 -18.889376 132.13678 4284303930
-47.830173 -6.8282151 42.363018 4289368956
-29.002773 -4.6696315 26.217234 4290489493
-42.693138 -6.1293511 38.129387 4288712055
-27.818388 -4.7152772 25.516121 4290090105
-18.817595 -3.2177007 17.372612 4289502091
-17.872824 -3.1870165 16.664249 4289369985
-17.01619 -3.1511467 16.01642 4289306259
-14.171955 -2.9242251 13.620512 4290027405
-12.347698 -2.6668942 12.007102 4288716174
-11.048066 -3.0786929 11.264092 4288778109
-5.1446848 -2.4682012 5.8656316 4289766289
-4.8415489 -2.3969555 5.5815773 4288713340
-4.8610272 -2.4131839 5.6328402 4289172608
-4.9015741 -2.4339538 5.7061501 4288255627
-4.2177954 -2.2949173 5.0301728 4289176209
-4.6184378 -2.4158461 5.4870138 4288321158
-4.6824179 -2.444957 5.5868797 4288649351
-4.734715 -2.4715948 5.6754241 4288060818
-4.7763886 -2.4959371 5.7535992 4287929496
-4.8107233 -2.5187917 5.824791 4287929750
-4.8193183 -2.5349855 5.8688049 4288193179
-4.8293171 -2.5517902 5.9148846 4288587939
-4.875493 -2.5789709 6.0013919 4288982954
-4.8559723 -2.5879622 6.0160885 4286879634
-4.871397 -2.6069875 6.0699282 4288261031
-4.8534646 -2.616487 6.0869098 4287076502
-4.8447275 -2.6287081 6.1144609 4286879893
-4.8428626 -2.643034 6.1501307 4286945686
-4.8304119 -2.6542411 6.174067 4288787636
-4.7297564 -2.6388295 6.0966969 4287208094
-4.3419418 -2.5347533 5.6845536 4285232756
-4.3519669 -2.5519118 5.7323241 4285033046
-4.3525743 -2.5662091 5.7695231 4285098581
-4.3340926 -2.5741155 5.7842793 4284901714
-4.137548 -2.5085726 5.5777245 4291747279
-4.1238546 -2.5171299 5.5969315 4290895599
-4.110352 -2.5260282 5.6167192 4290895598
-4.0960546 -2.5346732 5.6357489 4290829805
-4.0815935 -2.5432556 5.6547718 4290895341
-4.0669746 -2.5517542 5.6737828 4290895597
-4.0506706 -2.5599079 5.6910267 4290895854
-4.0344691 -2.5682306 5.7086573 4291026927
-4.0206599 -2.5767725 5.7291441 4291026413
-4.0045948 -2.5853004 5.7474294 4290895343
-3.9893215 -2.5941799 5.7669625 4291026156
-3.9748342 -2.6034305 5.7877693 4291224048
-3.9198518 -2.5853193 5.749032 4278657576
-3.8882155 -2.5834391 5.7447834 4279707691
-3.8729043 -2.5922816 5.7646675 4279707176
-3.8567436 -2.600914 5.78371 4279903789
-3.8402228 -2.6093731 5.8024621 4279904046
-3.8233294 -2.6176598 5.8209052 4279903787
-3.8056006 -2.6255751 5.8383965 4280035373
-3.7881994 -2.6337416 5.8566051 4279969839
-3.7701902 -2.6418254 5.8742814 4279969838
-3.7528036 -2.650063 5.8929615 4280035114
-3.7351906 -2.6586118 5.911788 4279969836
-3.7177615 -2.6672237 5.9310818 4279707949
-3.7001076 -2.6760731 5.9504871 4279904560
-3.6829035 -2.6849606 5.9706655 4279445544
-3.6336975 -2.670902 5.9391379 4291356134
-3.6156535 -2.6796036 5.9583802 4290895085
-3.5954342 -2.6875932 5.9748211 4280498758
-3.5741057 -2.693665 5.9889016 4281551176
-3.5520494 -2.7002182 6.0025926 4288459192
-3.5277305 -2.7033961 6.011519 4290895337
-3.5091693 -2.7120409 6.0311179 4290895338
-3.482152 -2.7167428 6.038053 4280565826
-3.4602346 -2.7217627 6.0515275 4280827456
-3.441565 -2.7310448 6.0720296 4284314733
-3.419806 -2.7371461 6.0868068 4280168749
-3.4005802 -2.7460225 6.1068139 4279841069
-3.3759809 -2.7513585 6.1179104 4291552485
-3.3573222 -2.7612729 6.1397982 4290829290
-3.3145528 -2.7531471 6.1188388 4282407779
-3.2932446 -2.7608044 6.1360512 4280167987
-3.2728686 -2.7694926 6.1554084 4280102195
-3.2521253 -2.7778778 6.174325 4280036404
-3.230953 -2.7862544 6.192925 4280101681
-3.2096052 -2.7943568 6.2113395 4280232240
-3.1880705 -2.8027601 6.22997 4280166963
-3.1663468 -2.8110099 6.2484837 4280232752
-3.1445005 -2.8192506 6.2670741 4279970863
-3.1224935 -2.827424 6.2856479 4279970863
-3.1004398 -2.835984 6.3046985 4280036146
-3.078325 -2.8444843 6.3238797 4280167220
-3.0561857 -2.853054 6.3433414 4280233776
-3.0241892 -2.853328 6.3431664 4280301620
-2.9931846 -2.8554039 6.3457541 4290895082
-2.971096 -2.8643034 6.3661027 4290960618
-2.9437788 -2.8690076 6.3761177 4279775277
-2.9190123 -2.876688 6.3922267 4291025630
-2.8960989 -2.8852615 6.4119067 4291091946
-2.8710186 -2.8919845 6.4272838 4281354060
-2.848227 -2.8997409 6.4470105 4280301107
-2.8243616 -2.9083343 6.4661498 4280894783
-2.7961144 -2.9138706 6.4766631 4290698217
-2.7721872 -2.9222696 6.4960494 4291355122
-2.7468657 -2.9296522 6.5128102 4280038199
-2.7200294 -2.9370265 6.5275593 4290960612
-2.6956418 -2.945008 6.5467167 4290763751
-2.6657639 -2.9513745 6.5564914 4280696640
-2.6345978 -2.9530799 6.5604253 4280037936
-2.6094306 -2.961247 6.5792422 4279971887
-2.5842242 -2.9700422 6.5988412 4279971118
-2.5585723 -2.9782014 6.6174879 4280102193
-2.5327029 -2.9863338 6.6360621 4280036656
-2.5067081 -2.9946756 6.6549191 4280036911
-2.4804275 -3.0028572 6.6734762 4280102703
-2.4538991 -3.0109253 6.6918283 4279840046
-2.427247 -3.0189948 6.710278 4279840046
-2.40047 -3.0271192 6.7288756 4280036910
-2.3735027 -3.0351472 6.7473741 4280102701
-2.3463688 -3.04319 6.7659163 4279906354
-2.3146188 -3.0506222 6.7765126 4288198071
-2.2851541 -3.0552905 6.7884369 4290632425
-2.2572854 -3.062367 6.8056102 4290763498
-2.2289755 -3.0727837 6.825624 4280233527
-2.2010791 -3.0809498 6.8444481 4279971377
-2.1720872 -3.087801 6.8603806 4286554021
-2.1435781 -3.0958419 6.8786402 4287278007
-2.1150846 -3.103817 6.8971791 4287278267
-2.0860903 -3.112215 6.915597 4284514693
-2.0578396 -3.1212304 6.9363165 4283790451
-2.0287926 -3.129535 6.955225 4286487454
-1.9997767 -3.1390691 6.975842 4279315494
-1.9696007 -3.1470091 6.9929986 4290435039
-1.9386076 -3.1510818 7.0047593 4289512911
-1.9090394 -3.1676488 7.0331078 4279773482
-1.878992 -3.1756294 7.0515766 4279641127
-1.8484802 -3.1828339 7.068646 4279706406
-1.8180133 -3.1906948 7.0868683 4279706152
-1.7872745 -3.1983132 7.1046395 4279640617
-1.7562906 -3.2057781 7.1221008 4279575591
-1.725257 -3.2136447 7.1402755 4279444002
-1.6939161 -3.2211156 7.157733 4279443744
-1.6624647 -3.2287688 7.1755357 4279443488
-1.6306269 -3.2357016 7.1920471 4279509025
-1.5989407 -3.2436547 7.2104464 4279443491
-1.5667777 -3.2505507 7.2269397 4279574818
-1.5338123 -3.2629762 7.2489905 4284841334
-1.5010041 -3.2704253 7.2655787 4289710554
-1.467919 -3.2758319 7.2793322 4289644507
-1.4361955 -3.2892287 7.3065743 4279511079
-1.4030834 -3.2959273 7.3226891 4279117085
-1.3725333 -3.3137026 7.3593316 4290105567
-1.339687 -3.3230016 7.3804326 4289710809
-1.3060193 -3.3286798 7.3952937 4281814606
-1.2733811 -3.3394675 7.4197693 4282999393
-1.239056 -3.3464975 7.4357796 4288064949
-1.205052 -3.3535421 7.4529157 4279380517
-1.1708773 -3.3608146 7.4703727 4278855713
-1.14016 -3.3911228 7.5293131 4289580500
-1.1064142 -3.4039233 7.5571203 4289185235
-1.0710939 -3.4099226 7.5718431 4289119699
-1.0356232 -3.4159384 7.5865798 4289250258
-1.0000877 -3.4224591 7.6022763 4289184718
-0.96475643 -3.4309459 7.6218624 4289052876
-0.92860138 -3.4357989 7.6342621 4288921549
-0.89243037 -3.4411833 7.6477647 4288789708
-0.85602337 -3.4457881 7.6597695 4288723911
-0.81912172 -3.463227 7.6913972 4283785564
-0.78551441 -3.4888732 7.7459059 4283060030
-0.748869 -3.4962635 7.76366 4282992958
-0.7114628 -3.499289 7.7725382 4282598711
-0.67569834 -3.5151181 7.8078537 4281216544
-0.63848257 -3.5219815 7.8247094 4280821530
-0.60094231 -3.5279815 7.8396192 4280231698
-0.50230706 -3.371896 7.3947358 4285959824
-0.46831578 -3.3799372 7.4178557 4286025361
-0.43447375 -3.389106 7.4441257 4286090386
-0.40151024 -3.4012444 7.4792404 4286024596
-0.5229187 -3.8292301 8.7604647 4279837998
-0.48554561 -3.8423057 8.8048649 4279574822
-0.44095272 -3.8439126 8.8059244 4279508259
-0.39587778 -3.8444738 8.803441 4279442975
-0.35379666 -3.8506625 8.8217421 4279442719
-0.30873519 -3.8503861 8.8177853 4279442468
-0.26419762 -3.8508985 8.8170671 4279376675
-0.21583655 -3.8376417 8.7745752 4278850578
-0.16600211 -3.8156011 8.7068882 4278389256
-0.12405898 -3.8211279 8.7241421 4278389769
-0.080830984 -3.8248267 8.7334185 4278521612
0.89329517 -0.15503898 -0.26637775 4284631644
0.89131814 -0.15372127 -0.2667149 4291727938
0.90836322 -0.15083958 -0.28561008 4285760913
0.87043148 -0.15239075 -0.25103605 4284174150
0.88126063 -0.15009718 -0.26384011 4284959838
0.8890475 -0.14795549 -0.27390078 4288458126
0.86001843 -0.14890604 -0.24750972 4288183873
0.87103289 -0.14656076 -0.26068285 4284968797
0.90133029 -0.14353988 -0.28761688 4288581208
16.141342 0.52731067 -11.824484 4285028685
18.72193 0.53056723 -13.712457 4285025598
22.064978 0.87798756 -16.442907 4286210128
26.098549 1.2418334 -19.698954 4286345839
42.63599 1.6351025 -32.050293 4284174149
62.503407 2.9557159 -47.647129 4285684301
93.537529 5.4484339 -72.41494 4285426801
-232.68089 -12.201157 180.11023 4283977022
-81.164246 -4.5386801 63.341999 4285948241
-56.760387 -3.6890073 44.884838 4285689978
-32.800571 -2.0835071 26.041599 4283583306
-20.331795 -1.9130921 16.710728 4286541159
-10.017466 -3.000061 9.6217909 4290222983
-9.914979 -2.9992785 9.5774698 4290353020
-9.5927868 -2.9568458 9.3338604 4292191364
-9.5206299 -2.9582913 9.3136234 4292323721
-9.3482933 -2.915628 9.1877842 4291204976
-6.8642335 -2.289196 6.8587112 4292388487
-1.917132 -0.84386098 2.0262358 4284963917
-1.8878928 -0.86008352 2.0168726 4285488203
-2.8543091 -0.99284697 2.9160731 4288251494
-88.921776 -11.096169 77.504013 4284173115
-40.584145 -5.7512002 36.083515 4289367928
-27.511986 -4.3686266 24.933466 4291276956
-38.310909 -5.5028558 34.37804 4288513645
-27.222618 -4.5218015 25.007677 4289892211
-21.42115 -3.5727572 19.781223 4290222211
-16.78578 -3.0290308 15.746339 4289108873
-16.192257 -3.0128791 15.317598 4289174147
-13.838387 -2.8287683 13.335303 4290092940
-12.016035 -2.6271529 11.754217 4289897366
-11.022515 -3.1209402 11.309904 4289172865
-5.1570544 -2.4423485 5.8787403 4289963923
-4.9199886 -2.3866158 5.661932 4288648061
-4.9703722 -2.4094076 5.7452178 4288975232
-5.0439849 -2.4374502 5.8531804 4288976517
-4.1338854 -2.2461336 4.9402113 4289834653
-4.7158899 -2.4138999 5.5906262 4288255879
-4.7460375 -2.4341288 5.6550694 4288518023
-4.8435631 -2.4722025 5.7923732 4288191117
-4.8689728 -2.4922514 5.853745 4287929750
-4.9373269 -2.5240624 5.9623308 4287995289
-4.9295707 -2.5360758 5.9893994 4288323997
-4.9381728 -2.5526559 6.0347033 4288587427
-4.9849772 -2.5799577 6.1226325 4289047975
-4.9402447 -2.5822535 6.110167 4287798428
-4.9782553 -2.6076851 6.1898031 4287931041
-4.986517 -2.6249721 6.236979 4289642173
-4.9519587 -2.6300497 6.2363172 4288789173
-4.9658365 -2.6492 6.2906876 4287669413
-4.952271 -2.6603596 6.3142462 4287735205
-4.9002023 -2.6604218 6.2939095 4287997864
-4.3638816 -2.5142527 5.7108021 4285495671
-4.3959398 -2.5385447 5.7848501 4285033299
-4.3821335 -2.5479288 5.8051739 4285099091
-4.3694448 -2.5578356 5.8271246 4285165143
-4.1429453 -2.4836042 5.5848322 4291353289
-4.1284933 -2.4919643 5.6032395 4290829805
-4.1138248 -2.5006785 5.6218057 4290960879
-4.0999627 -2.5092402 5.6413217 4290960880
-4.0850797 -2.5176826 5.6599078 4291026926
-4.0710778 -2.5260899 5.6795964 4291091950
-4.0546284 -2.5341885 5.6967349 4291092462
-4.0393815 -2.5425174 5.7154617 4291026928
-4.0237021 -2.5507965 5.7338986 4291091951
-4.0085268 -2.5592909 5.7531972 4291092204
-3.9936528 -2.5681114 5.7732143 4291026414
-3.9790955 -2.5772359 5.7939663 4291157999
-3.9258273 -2.5598307 5.7574282 4278460455
-3.8936841 -2.5576165 5.7524629 4279773483
-3.8782032 -2.5663259 5.772182 4279706666
-3.8620567 -2.5748739 5.7912884 4279641385
-3.8455503 -2.5832334 5.8100948 4279772971
-3.828588 -2.591352 5.8284578 4279904043
-3.8106198 -2.5992498 5.8457637 4280035370
-3.7932963 -2.6073666 5.8641267 4280035629
-3.7754467 -2.6153438 5.8820152 4279970094
-3.7577033 -2.6234505 5.9003091 4279773487
-3.7400477 -2.6319001 5.9191256 4279773486
-3.7224853 -2.6403577 5.9382715 4279969838
-3.7050321 -2.6490991 5.9579439 4280166703
-3.6873636 -2.6577427 5.9775333 4279445542
-3.6383648 -2.6441336 5.9464741 4291290084
-3.6200407 -2.6524575 5.9652491 4290894827
-3.5985861 -2.6605625 5.9803901 4280105539
-3.5779879 -2.6671698 5.9957685 4283000161
-3.5545175 -2.6719835 6.0067143 4289053136
-3.5361145 -2.6806812 6.0264573 4289185497
-3.5140862 -2.684716 6.0389595 4291026160
-3.4872532 -2.6896193 6.0463219 4280237373
-3.4679184 -2.6973546 6.0648828 4284117877
-3.4451869 -2.703516 6.0784144 4287998906
-3.4243057 -2.7093151 6.0941677 4281156415
-3.4039657 -2.7179241 6.1127138 4280235054
-3.3806129 -2.7236366 6.125711 4291552487
-3.3620136 -2.7336566 6.147872 4290764011
-3.318594 -2.7252767 6.1258836 4282211685
-3.2976196 -2.7331116 6.1437535 4279972146
-3.2772431 -2.7415562 6.1630549 4279971118
-3.2564359 -2.7499433 6.1820073 4279839792
-3.2351682 -2.7581644 6.2004871 4279970865
-3.2137203 -2.7663736 6.2189646 4280101683
-3.1922157 -2.774538 6.2375779 4280036404
-3.1704886 -2.7826521 6.2561059 4280036401
-3.1485457 -2.7908163 6.2746301 4279970866
-3.1265228 -2.7991142 6.293395 4280036657
-3.1044185 -2.8074696 6.3123474 4279905584
-3.0822945 -2.8157206 6.3314514 4279971376
-3.0601223 -2.8243263 6.3510218 4280102964
-3.0272241 -2.8236473 6.3489208 4280432952
-2.996804 -2.8263826 6.3528795 4290895082
-2.9747717 -2.8351362 6.373322 4290829547
-2.9475224 -2.8397844 6.3834777 4279709992
-2.9227054 -2.847337 6.3995285 4291552237
-2.8983614 -2.8554194 6.4169068 4281158995
-2.8746057 -2.8621206 6.4342651 4279907889
-2.8492882 -2.8700223 6.4505925 4284118381
-2.8239689 -2.877243 6.4665971 4291091432
-2.7996681 -2.8843541 6.4842381 4291092204
-2.7737045 -2.8917274 6.4999037 4281619034
-2.7500825 -2.9016428 6.5214152 4280038710
-2.7233651 -2.9070587 6.5348096 4291026920
-2.6989284 -2.9150908 6.5540733 4290764006
-2.6682968 -2.9209635 6.5623732 4280104244
-2.6379385 -2.9233775 6.5682187 4279906350
-2.6127234 -2.9314864 6.5870533 4279905582
-2.5873559 -2.9398472 6.6061659 4279971120
-2.5616257 -2.9478528 6.6246939 4279970862
-2.5357385 -2.9560184 6.6434093 4279839788
-2.5096354 -2.9640846 6.6619887 4280036146
-2.4833496 -2.9723725 6.6807752 4280101935
-2.4567606 -2.9801857 6.6989384 4279839534
-2.4300749 -2.988235 6.7174582 4280037169
-2.4032571 -2.9962528 6.7360349 4279971375
-2.3763802 -3.004668 6.7551956 4279840049
-2.3491256 -3.0123978 6.7733922 4279906610
-2.3171914 -3.0192204 6.7832003 4288396221
-2.2878373 -3.0241919 6.7957211 4290566889
-2.2597201 -3.0306077 6.8119707 4290697447
-2.2314296 -3.041132 6.8322735 4280102709
-2.2035244 -3.0493536 6.8512907 4279905841
-2.175235 -3.0572827 6.8696737 4279905830
-2.1473186 -3.067064 6.8909211 4279971881
-2.1184137 -3.0737531 6.9076138 4279709219
-2.0892706 -3.0818036 6.9255939 4285039738
-2.0604348 -3.090652 6.9452853 4287012775
-2.0310307 -3.0983255 6.9630599 4279708710
-2.0018811 -3.1065211 6.982182 4279380003
-1.9716948 -3.1143858 6.9993882 4290237918
-1.9409391 -3.1198828 7.0132709 4288789449
-1.9111421 -3.1349833 7.0397997 4279577390
-1.8810263 -3.1427948 7.0581174 4279641385
-1.8506649 -3.1504421 7.0761304 4279772198
-1.8200266 -3.1578567 7.0936913 4279641124
-1.7892257 -3.1653261 7.1113396 4279444262
-1.758252 -3.172868 7.1290774 4279574822
-1.7270312 -3.1801989 7.1464291 4279443748
-1.695696 -3.1877306 7.1641355 4279443491
-1.6642153 -3.1953228 7.1819773 4279574305
-1.6325586 -3.2029004 7.1998043 4279508510
-1.6006248 -3.2100844 7.2169461 4279574051
-1.5686342 -3.2176352 7.2347779 4279509282
-1.5348308 -3.2277913 7.2524467 4286091658
-1.5027074 -3.2369442 7.272779 4289776602
-1.4692261 -3.2410741 7.2842197 4289512403
-1.4387391 -3.2586706 7.319788 4279248163
-1.4076539 -3.2738762 7.3517056 4289577420
-1.3742243 -3.2803257 7.3675747 4289645529
-1.3408917 -3.287796 7.3853779 4289448921
-1.3075609 -3.2960088 7.4045897 4289841625
-1.2750418 -3.3071964 7.4301591 4284117885
-1.2403429 -3.3127506 7.4434943 4282013013
-1.2074276 -3.3248057 7.4704056 4286287504
-1.1719729 -3.3255694 7.4759388 4278724126
-1.1429911 -3.3632317 7.550056 4289316304
-1.1078062 -3.3694828 7.56532 4289316306
-1.0726335 -3.3763297 7.581861 4289382101
-1.0370891 -3.3822038 7.5964398 4289250258
-1.0017244 -3.3898175 7.6144567 4289053133
-0.96595365 -3.3961542 7.6299472 4288856269
-0.92997241 -3.4021523 7.6447687 4288658891
-0.89381289 -3.4078419 7.6590242 4288592583
-0.85760736 -3.4139454 7.6741881 4288526278
-0.824453 -3.4539299 7.7525597 4282601287
-0.78724408 -3.4579239 7.7632504 4283257153
-0.75010228 -3.4624319 7.7752609 4282993724
-0.71257007 -3.4649224 7.7831297 4282664759
-0.67649484 -3.4787266 7.8145733 4281150749
-0.63926125 -3.4859312 7.8322129 4280689939
-0.60180724 -3.4931133 7.8496857 4280231951
-0.4982968 -3.326046 7.3672433 4285959571
-0.46444651 -3.3340726 7.390573 4285959574
-0.42881531 -3.3387668 7.4032164 4285959572
-0.39570722 -3.3500383 7.4360242 4283524462
-0.51981008 -3.7784965 8.738349 4279510313
-0.47773272 -3.7831664 8.7520885 4279639335
-0.43595487 -3.7894628 8.7703753 4279508259
-0.39112097 -3.7899556 8.7679396 4279442721
-0.34700564 -3.7914963 8.7698793 4279311652
-0.30372575 -3.7944403 8.7775221 4279377188
-0.26000148 -3.7959707 8.780982 4279114528
-0.21316835 -3.7857027 8.7489548 4278653203
-0.16277002 -3.7623129 8.6752005 4278389000
-0.1207028 -3.7668386 8.6894741 4278586635
-0.077677771 -3.7705073 8.6989069 4278718222
0.89788914 -0.15686128 -0.27081183 4288891229
0.90822935 -0.15462078 -0.28307745 4287600704
0.91342604 -0.15269201 -0.29056865 4290471805
0.87746257 -0.15393291 -0.25791577 4286413126
0.88696492 -0.15177844 -0.26946995 4284959840
0.90026098 -0.14921086 -0.28502524 4288322187
0.86479247 -0.15055948 -0.25226492 4292038981
0.88497216 -0.14751269 -0.27461821 4288958048
0.91851044 -0.14338253 -0.30903402 4293287248
6.9750481 0.071612597 -4.9236064 4286278240
18.817734 0.48117399 -13.809866 4285090878
21.693577 0.83128273 -16.217607 4286077773
26.214464 1.193987 -19.83996 4286543475
43.169106 1.5599031 -32.534569 4284174151
53.689674 2.586802 -41.145096 4285551944
95.89991 5.3991599 -74.449944 4285688685
-225.80992 -11.521863 175.37167 4283847505
-119.69897 -7.1772237 94.17028 4285421897
-56.056953 -3.5275035 44.44553 4285755771
-32.490025 -1.9275843 25.810505 4283321935
-23.640181 -1.8888305 19.247492 4286211418
-10.09401 -2.9277227 9.6706972 4291339407
-9.887207 -2.9445004 9.5529528 4290418556
-9.6025105 -2.9107132 9.3433895 4292191364
-9.387435 -2.8975618 9.1996632 4293312156
-9.2676792 -2.8563607 9.1164541 4291335794
-7.0850444 -2.3164887 7.0739484 4292518785
-1.7222724 -0.81241566 1.8481742 4290822334
-1.8664147 -0.85156858 1.9989307 4286610033
-2.211669 -0.92806035 2.3423572 4291279796
-68.845612 -8.5170679 60.239479 4284042046
-34.237144 -4.8419094 30.57863 4289564274
-22.317333 -3.6267784 20.386356 4291341726
-34.035755 -4.9335117 30.719276 4288513902
-25.585222 -4.231154 23.593111 4289630579
-21.314972 -3.6408801 19.829491 4290882202
-16.154406 -2.9056735 15.211955 4289043600
-15.394067 -2.8823948 14.63835 4289239943
-13.276232 -2.7214084 12.852016 4289961614
-11.243105 -2.5745244 11.124425 4290621349
-11.047491 -3.1418285 11.383801 4290355854
-6.2054429 -2.6395304 6.9390049 4291341720
-5.0638671 -2.3890424 5.808754 4288779905
-5.0588284 -2.4001987 5.8362436 4288712828
-5.1383395 -2.4292707 5.9507842 4288975742
-4.1172009 -2.2168674 4.9222889 4290558118
-4.7800598 -2.4027135 5.6590281 4288386950
-4.8115482 -2.4230664 5.725256 4288648836
-4.9437943 -2.4694555 5.9000702 4288387208
-4.9986143 -2.4970243 5.9936814 4288257166
-5.0105448 -2.5140815 6.042089 4287864216
-5.1134806 -2.5553544 6.1900706 4287930007
-5.0395999 -2.5503089 6.1463375 4288323994
-5.0867867 -2.5776188 6.2353678 4288587937
-5.1308637 -2.6046932 6.3221035 4289640112
-5.1374192 -2.6216245 6.3679533 4287470743
-5.1540632 -2.641609 6.4256835 4288720810
-5.097147 -2.6409254 6.4010129 4288194983
-5.08076 -2.651577 6.422009 4287932071
-5.1372051 -2.683387 6.5265279 4287735462
-5.0350099 -2.6694603 6.4498973 4288194729
-4.411438 -2.501703 5.7672014 4285890941
-4.4284067 -2.5208216 5.8237047 4284967763
-4.4364386 -2.5373478 5.8702989 4285230165
-4.4054213 -2.5412676 5.8706899 4284967763
-4.1481571 -2.4585929 5.5917659 4291548874
-4.1336293 -2.4667428 5.6100655 4290960621
-4.1178694 -2.4752581 5.6274738 4291091953
-4.1040597 -2.483711 5.6470685 4291092208
-4.0896878 -2.492115 5.6662517 4291158001
-4.0741544 -2.5002763 5.6842766 4291092721
-4.0591569 -2.5084608 5.7030745 4291026929
-4.0437083 -2.5166535 5.7215967 4291158258
-4.0272646 -2.5248137 5.7392325 4291158002
-4.0128503 -2.5332408 5.7593961 4291158000
-3.9973938 -2.5418725 5.7787657 4291092208
-3.9826536 -2.5508397 5.7993183 4291289331
-3.9308469 -2.5345628 5.7649565 4278722602
-3.8992429 -2.5316801 5.760221 4279838508
-3.8833907 -2.5402877 5.7795711 4279903530
-3.867471 -2.5487726 5.7989888 4279968811
-3.850693 -2.5570843 5.8175621 4279837992
-3.8333483 -2.5648863 5.8354034 4280100652
-3.815825 -2.5728273 5.8533278 4280166447
-3.7984123 -2.5809367 5.8716831 4280166700
-3.7803249 -2.5887556 5.8893018 4280035881
-3.7625504 -2.5967925 5.9076147 4280166699
-3.7450473 -2.605118 5.92663 4279969836
-3.7272942 -2.6134157 5.9455581 4280101427
-3.7098107 -2.6220469 5.9652305 4280035635
-3.6920626 -2.6306527 5.9848065 4279642669
-3.6431167 -2.6172004 5.9538527 4291355108
-3.6235678 -2.6249154 5.970891 4290895339
-3.603673 -2.6333981 5.988214 4280302660
-3.5770173 -2.636488 5.9941511 4280036913
-3.5585613 -2.6451263 6.0136614 4280103216
-3.5401504 -2.6538785 6.0335369 4279446054
-3.5189197 -2.6571863 6.0466175 4290828769
-3.4921954 -2.6622112 6.0542631 4280171328
-3.4731891 -2.671319 6.0742602 4280037940
-3.4491143 -2.6757901 6.0850883 4280960065
-3.4268868 -2.6824515 6.0998454 4291221987
-3.4082952 -2.690196 6.1200929 4280037933
-3.3855679 -2.6968491 6.1346202 4291552744
-3.3669665 -2.7063792 6.1565709 4290829291
-3.3229291 -2.6974137 6.1333599 4282473061
-3.3019943 -2.7053225 6.151443 4280233527
-3.2814896 -2.7137339 6.1706738 4279905071
-3.2606504 -2.7220247 6.1896329 4280036146
-3.2394173 -2.7300653 6.2081442 4279904561
-3.2179086 -2.7380798 6.2265167 4280036145
-3.1963534 -2.7461023 6.2450771 4280102190
-3.1745698 -2.7541273 6.2635822 4280036400
-3.1525362 -2.7623127 6.2821188 4280233008
-3.1305513 -2.770431 6.3009214 4280101680
-3.1083891 -2.7787237 6.31987 4280167982
-3.0862448 -2.7870326 6.3391137 4280299056
-3.0640528 -2.7954106 6.3586102 4280103217
-3.0294421 -2.7935286 6.353251 4280630328
-3.0002193 -2.7972672 6.359704 4291026411
-2.9783523 -2.8059292 6.380435 4290763496
-2.9507122 -2.8118625 6.3911433 4280368438
-2.9270051 -2.8196826 6.4091039 4282804066
-2.9011359 -2.8257592 6.4228263 4287803057
-2.8773232 -2.8336864 6.4412088 4289116090
-2.8522482 -2.8406324 6.4572253 4290696927
-2.8275514 -2.8476391 6.4740782 4290829293
-2.8025453 -2.8554575 6.491396 4284382081
-2.7776587 -2.8635936 6.5094132 4280169523
-2.7534356 -2.8716743 6.5286431 4280169008
-2.7266681 -2.8769443 6.5419497 4291026921
-2.7022352 -2.8850784 6.5614438 4290763240
-2.6711524 -2.8903501 6.568624 4280235575
-2.6412141 -2.8934631 6.5757961 4280167728
-2.6159594 -2.901521 6.594666 4280167730
-2.5904315 -2.9094362 6.6132779 4280232752
-2.564687 -2.9174972 6.6319714 4280101168
-2.5386951 -2.9253843 6.6504121 4279839535
-2.5125816 -2.9336507 6.6692972 4280036143
-2.4861774 -2.9414387 6.6875796 4280036145
-2.4595933 -2.9493265 6.7059588 4280101935
-2.4329622 -2.9575794 6.7249017 4280101422
-2.4060321 -2.9652665 6.7431307 4279970861
-2.3790751 -2.9734344 6.7620735 4279970862
-2.351814 -2.9811664 6.780406 4279971634
-2.3200998 -2.9891343 6.7917929 4288987588
-2.2907016 -2.9936385 6.8039179 4290238696
-2.262218 -2.9990931 6.8187456 4290368737
-2.233973 -3.0097568 6.8394213 4279971379
-2.2061045 -3.0181663 6.8588476 4279511851
-2.17816 -3.0267901 6.8786983 4290564823
-2.1499395 -3.0361485 6.8991637 4279642662
-2.1210003 -3.0433414 6.9164782 4289051579
-2.0919039 -3.0507667 6.934062 4284051062
-2.0630915 -3.0598044 6.9541759 4282078806
-2.0336516 -3.0675645 6.9721532 4289709259
-2.0041749 -3.0744781 6.9894838 4279051809
-1.9740251 -3.0823603 7.0069361 4290172127
-1.943314 -3.0883331 7.0215721 4288263362
-1.9132017 -3.1021693 7.0463223 4279511341
-1.8830421 -3.10988 7.0646086 4279706666
-1.8526937 -3.1175876 7.0828791 4279575588
-1.8220068 -3.1248915 7.1003857 4279641126
-1.7912027 -3.1323848 7.1182222 4279575330
-1.7601866 -3.1398337 7.1359396 4279575075
-1.7289667 -3.1472011 7.1535072 4279377701
-1.6976796 -3.1549323 7.1717253 4279640102
-1.6661038 -3.162272 7.1892543 4279509030
-1.6344943 -3.1700566 7.2076139 4279575077
-1.6024154 -3.1768217 7.2241273 4279378469
-1.5701522 -3.1835012 7.2404919 4279313442
-1.5372038 -3.1963086 7.263464 4287539105
-1.5043823 -3.2033341 7.2798491 4289842138
-1.4705722 -3.2064729 7.2894583 4288986056
-1.4401162 -3.2240396 7.3253379 4278985756
-1.4088385 -3.2385271 7.3561544 4289907154
-1.3755286 -3.2454476 7.3730721 4289645783
-1.3420922 -3.2525649 7.3903489 4289579735
-1.308642 -3.2603269 7.4088631 4289710809
-1.2764467 -3.2733374 7.4379139 4288920008
-1.2417734 -3.2783833 7.4507818 4289709522
-1.2084565 -3.2889359 7.474905 4285893010
-1.1741297 -3.2961071 7.492372 4279973164
-1.1441512 -3.3277071 7.5560422 4289381587
-1.1091096 -3.334626 7.5728178 4289251027
-1.0738246 -3.3410902 7.5887308 4289251026
-1.0383735 -3.3475461 7.6046119 4289315793
-1.0029327 -3.3549197 7.622313 4289118414
-0.96727854 -3.3620048 7.6394744 4288987599
-0.93132663 -3.3683665 7.6551795 4288724684
-0.89534396 -3.3753343 7.6721702 4288920776
-0.85851747 -3.3779376 7.680377 4288591300
-0.82566088 -3.4193749 7.7626061 4282534207
-0.7884171 -3.4233875 7.7734594 4283191617
-0.75102264 -3.426466 7.78263 4282993468
-0.71349627 -3.4292274 7.7911468 4282598714
-0.6772579 -3.4420722 7.8208652 4281019678
-0.63990986 -3.4486146 7.8372688 4280690453
-0.60248566 -3.4562242 7.8558135 4280297753
-0.49159053 -3.2747719 7.3216772 4286024847
-0.45768386 -3.2820864 7.3431072 4286025105
-0.42237791 -3.2868395 7.3562579 4285893780
-0.39232582 -3.3044505 7.4098339 4283393132
-0.51256257 -3.7209089 8.6898746 4279706409
-0.47191277 -3.7280796 8.7123442 4279639332
-0.42893049 -3.7315691 8.7208204 4279442463
-0.38619727 -3.7354212 8.7311039 4279442717
-0.34301099 -3.7383428 8.7383366 4279442721
-0.29860702 -3.7384946 8.7360039 4279442718
-0.25371265 -3.7367284 8.7278919 4279310875
-0.2098224 -3.732384 8.7174568 4278784272
-0.15921499 -3.7084367 8.6403656 4278454535
-0.1150976 -3.7067277 8.6330557 4278717452
-0.07377734 -3.7143719 8.6567554 4278718221
0.90563488 -0.15852538 -0.2782805 4290005819
0.91393489 -0.15646182 -0.28862688 4285231490
0.92330855 -0.15422979 -0.30023685 4286276986
0.88679421 -0.15539132 -0.26705322 4284182693
0.89827782 -0.15310742 -0.28063199 4289743932
0.92587256 -0.14935838 -0.31048357 4285814631
0.88785577 -0.15092568 -0.27518457 4285562527
0.8914935 -0.1491809 -0.28114966 4288892769
0.924923 -0.14510694 -0.31591097 4291582539
2.2294106 -0.12608843 -1.3139286 4290293149
18.942127 0.49884981 -13.983806 4284960062
21.326414 0.77554411 -15.985438 4285880906
26.367405 1.1143849 -19.983414 4286544242
43.31319 1.6351786 -32.858734 4283846470
49.787609 2.3285019 -38.272305 4285355076
97.187874 5.4327745 -75.775253 4285753958
-1825.8356 -93.019394 1423.6897 4284439903
-134.457 -7.7647443 106.02662 4285158469
-55.377968 -3.3740082 44.02562 4285624443
-33.345539 -2.0274737 26.646564 4283782235
-24.18251 -1.7979301 19.673145 4285882196
-15.636281 -2.3468797 13.649458 4286148713
-9.8487587 -2.8872924 9.5183802 4290352507
-9.6044617 -2.8609402 9.3447008 4291993987
-9.3440466 -2.8443699 9.1618881 4293445284
-9.1835928 -2.7961466 9.0413141 4291139955
-7.4961085 -2.3958554 7.4750423 4292518525
-1.6531807 -0.79969311 1.7864549 4285751635
-1.855445 -0.84391207 1.9904188 4289504927
-1.9204912 -0.89264035 2.0776622 4291214775
-49.900261 -6.2431922 43.936367 4286139196
-26.007717 -3.7915301 23.433094 4289497449
-12.267695 -2.3486531 11.533421 4292060808
-30.590664 -4.4774737 27.770596 4288844668
-24.387207 -3.9902458 22.554216 4289696632
-18.747505 -3.3506286 17.629616 4291866516
-15.383608 -2.7804108 14.557935 4289173379
-14.752012 -2.764226 14.08864 4289174410
-12.811056 -2.6224718 12.449831 4289766550
-11.075783 -2.5105853 10.983318 4290818978
-11.071243 -3.1832132 11.469647 4288845443
-6.347537 -2.6349068 7.0826693 4291078804
-5.1405454 -2.3764799 5.8872943 4289369984
-5.1371064 -2.3880243 5.9168692 4288713341
-5.2031646 -2.4139819 6.0180573 4288713596
-4.130939 -2.1961462 4.9370489 4290624942
-4.8505993 -2.3923757 5.7341566 4288519052
-4.9460239 -2.4280326 5.8686624 4288255878
-5.0417447 -2.4650483 6.0052938 4288321157
-5.1640167 -2.5092969 6.1719179 4288518537
-5.2235231 -2.5388312 6.2728486 4287798421
-5.2232747 -2.553468 6.3100319 4287864213
-5.2530775 -2.5760715 6.3804941 4288061080
-5.1997256 -2.5770395 6.3603029 4288390302
-5.3259234 -2.6260719 6.5387278 4288916130
-5.3266692 -2.6418359 6.5794663 4289113508
-5.322155 -2.6564231 6.6148467 4288457126
-5.2738299 -2.65887 6.6011615 4288196010
-5.2401762 -2.6651456 6.6038404 4287932841
-5.2951169 -2.6965015 6.7077427 4287735205
-5.1876373 -2.6820416 6.6263251 4288392363
-4.4412742 -2.4828587 5.8026752 4286285443
-4.4741192 -2.5068552 5.8782148 4284967252
-4.4730577 -2.5203493 5.9143109 4285098579
-4.4529061 -2.5279162 5.9280229 4285033806
-4.153141 -2.4334459 5.5984278 4291154365
-4.137548 -2.4413238 5.6155586 4290895600
-4.1230345 -2.4498503 5.6343484 4290961391
-4.10884 -2.4582016 5.653574 4291027442
-4.0944653 -2.466517 5.672792 4291093235
-4.0789747 -2.4745462 5.6908736 4291092979
-4.0629768 -2.4825778 5.7086091 4291158771
-4.048038 -2.4907043 5.7277212 4291027701
-4.0318637 -2.4988151 5.7457008 4291224051
-4.0172648 -2.507134 5.7656956 4291158515
-4.0015049 -2.5155592 5.7847075 4291027184
-3.9864297 -2.5243337 5.8048754 4291158768
-3.9355192 -2.5086415 5.7717676 4278723369
-3.9046288 -2.5056856 5.7678013 4279839534
-3.8889678 -2.5141616 5.7873845 4279707692
