# .PCD v0.7 - Point Cloud Data file format
VERSION 0.7
FIELDS x y z rgb
SIZE 4 4 4 4
TYPE F F F U
COUNT 1 1 1 1
WIDTH 1152
HEIGHT 1
VIEWPOINT 0 0 0 1 0 0 0
POINTS 1152
DATA ascii
17.392185 6.1028991 4.3349967 4288256409
17.273409 5.9986572 4.3054376 4288322202
17.16531 5.9019413 4.2785282 4288387995
17.06753 5.8124332 4.2541614 4288453788
16.980865 5.7305393 4.2325525 4288453788
16.900074 5.6528573 4.2124119 4288453788
16.830938 5.5829611 4.1951647 4288453788
16.773832 5.5209837 4.1808739 4288453788
16.718363 5.4603457 4.1670671 4288519581
16.654974 5.395123 4.1514068 4288651167
16.597719 5.3340712 4.1371679 4288651167
16.544783 5.2760057 4.1239743 4288651167
16.494608 5.2199488 4.1114159 4288651167
16.449636 5.1673512 4.1001105 4288651167
16.405384 5.1154528 4.0889869 4288651167
16.365969 5.0667362 4.0789914 4288651167
16.323826 5.0166292 4.0683088 4288651167
16.289707 4.9715557 4.0595331 4288716960
16.247141 4.9216757 4.0487533 4288651167
16.201975 4.8704104 4.037818 4288387995
22.696407 10.179232 5.6120811 4287993237
21.918039 9.6012144 5.4208474 4287993237
21.230951 9.0902081 5.2520394 4287993237
20.659584 8.6620331 5.1116114 4287993237
20.141582 8.2734175 4.9842663 4288059030
19.732159 7.9611082 4.8835812 4288059030
19.376265 7.6871777 4.7960434 4288059030
19.058704 7.4409943 4.7179098 4288059030
18.79393 7.231823 4.6527543 4288059030
18.559692 7.0444589 4.5950999 4288124823
18.321209 6.8556781 4.5364799 4288190616
18.112164 6.6876431 4.4850879 4288190616
17.928492 6.537436 4.4399219 4288256409
17.779428 6.4108405 4.403224 4288256409
17.622553 6.2800627 4.364676 4288322202
17.476959 6.1574879 4.3289204 4288322202
17.348989 6.0470901 4.297471 4288387995
17.23184 5.9443655 4.2686787 4288453788
17.124634 5.8486609 4.242312 4288453788
17.04217 5.7692552 4.2219687 4288453788
16.951431 5.6851206 4.1996565 4288453788
16.866297 5.6050363 4.1787257 4288519581
16.805695 5.5407729 4.1637464 4288519581
16.74758 5.4783969 4.1494513 4288585374
16.685532 5.4139194 4.1342816 4288651167
16.635073 5.3569613 4.1218338 4288716960
16.578934 5.2968278 4.1079965 4288716960
16.523773 5.2376285 4.0943794 4288716960
16.476574 5.1835942 4.0826535 4288716960
16.431124 5.1308961 4.0713482 4288782753
16.398905 5.086431 4.0631676 4288782753
16.353142 5.0340605 4.0517316 4288782753
16.311031 4.9841404 4.0411563 4288782753
16.273417 4.9371343 4.0316539 4288782753
16.226255 4.8846259 4.0203223 4288519581
22.314571 9.8734465 5.4763613 4287993237
21.57025 9.3221292 5.2957735 4287993237
20.948456 8.8586178 5.144865 4287993237
20.405455 8.4521933 5.013021 4288059030
19.969542 8.1212215 4.9071546 4288059030
19.588234 7.8295107 4.8145347 4288059030
19.259632 7.5753074 4.734673 4288059030
18.983175 7.3577576 4.6674781 4288124823
18.730499 7.1576061 4.6060691 4288190616
18.480986 6.9610362 4.5454893 4288190616
18.26424 6.7874665 4.4928532 4288256409
18.099203 6.6489873 4.4527016 4288322202
17.909336 6.4953246 4.4066243 4288322202
17.73518 6.3529634 4.3643794 4288387995
17.577888 6.2225075 4.3262343 4288387995
17.438583 6.1045313 4.2924318 4288453788
17.311054 5.9949059 4.261487 4288453788
17.215578 5.906425 4.2382412 4288519581
17.137815 5.8297253 4.2192607 4288519581
17.047392 5.7455015 4.1972904 4288585374
16.94977 5.6573005 4.1736035 4288585374
16.882893 5.588872 4.1572809 4288651167
16.821571 5.5242782 4.142365 4288716960
16.748587 5.4528255 4.1247253 4288782753
16.691612 5.3916688 4.1108627 4288848546
16.630911 5.3285766 4.0960741 4288848546
16.568089 5.264554 4.0807848 4288848546
16.526768 5.2139568 4.0705681 4288848546
16.478325 5.1593065 4.0586624 4288914339
16.43918 5.1105385 4.0489287 4288914339
16.388887 5.0553408 4.0365381 4288914339
16.351679 5.0082335 4.0272269 4288980132
16.313395 4.96071 4.0176592 4288914339
16.261539 4.905334 4.0052834 4288716960
22.97476 8.4018135 5.6377554 4288059030
22.801769 10.207943 5.5511198 4287993237
21.974817 9.5986824 5.3530388 4287993237
21.397161 9.1639967 5.2144709 4288059030
20.730782 8.6726236 5.0548539 4288059030
20.254305 8.3133135 4.9406085 4288059030
19.832048 7.993247 4.839355 4288059030
19.502621 7.7377591 4.7602668 4288124823
19.206793 7.5065866 4.68927 4288190616
18.942091 7.2977958 4.6257401 4288190616
18.665775 7.0829096 4.5595155 4288256409
18.443689 6.9052782 4.5062404 4288322202
18.267565 6.7590132 4.4639339 4288322202
18.064182 6.5960503 4.4151964 4288322202
17.868689 6.4394021 4.3683891 4288387995
17.694942 6.2979355 4.3267941 4288453788
17.575315 6.1922426 4.2980614 4288519581
17.431795 6.071991 4.2636819 4288519581
17.352186 5.9932432 4.244463 4288585374
17.255743 5.9043093 4.2212768 4288651167
17.171152 5.82341 4.2009439 4288716960
17.080788 5.7393913 4.1792545 4288782753
17.004856 5.6649246 4.1609612 4288782753
16.942461 5.5993056 4.1459336 4288848546
16.867205 5.5260968 4.1279202 4288914339
16.379564 4.9997964 4.0095749 4289045925
22.775345 10.145913 5.5010657 4288124823
21.959093 9.5464516 5.3080597 4288124823
21.246675 9.0221996 5.1395893 4288124823
20.701731 8.6151552 5.0106349 4288124823
20.310213 8.3143969 4.9178348 4288190616
19.889378 7.996357 4.8182287 4288190616
19.558538 7.7407212 4.7398591 4288256409
19.287205 7.5264831 4.6755447 4288322202
19.032997 7.3251519 4.6153121 4288322202
18.72583 7.0905461 4.542696 4288322202
18.476242 6.8954082 4.4836502 4288322202
18.306942 6.754003 4.4435058 4288387995
18.072945 6.5716858 4.3882246 4288453788
17.916676 6.4408803 4.3512282 4288519581
17.772921 6.319037 4.3171773 4288585374
17.608496 6.1848426 4.278296 4288651167
17.515057 6.0967727 4.2560587 4288716960
17.427771 6.0131507 4.2352824 4288782753
22.479664 9.8576918 5.3878455 4288322202
21.787575 9.3477011 5.2262974 4288322202
21.056887 8.8159027 5.0558562 4288322202
20.586306 8.462369 4.9459248 4288322202
20.206396 8.1719894 4.8571134 4288322202
19.814142 7.8756814 4.7655182 4288322202
19.508451 7.6388121 4.6940789 4288387995
19.160934 7.3762865 4.6129866 4288387995
18.879047 7.1587343 4.5471683 4288387995
18.668438 6.9892406 4.4979339 4288453788
18.369932 6.7640538 4.42837 4288519581
18.180763 6.611146 4.3842025 4288585374
22.740675 9.946825 5.4043765 4288519581
22.137537 9.4996347 5.2653885 4288519581
21.330368 8.9202137 5.0796952 4288453788
20.594772 8.3930197 4.9105387 4288453788
20.245628 8.1251507 4.830029 4288453788
19.807913 7.801188 4.7292762 4288453788
19.453154 7.534061 4.6475787 4288519581
19.2082 7.3405037 4.5910869 4288519581
18.929464 7.1265116 4.5269232 4288651167
18.671329 6.9274611 4.4675102 4288716960
22.903259 9.9672937 5.3972726 4288651167
21.911093 9.2653761 5.172183 4288651167
21.210159 8.7614956 5.0130911 4288651167
20.892284 8.5133533 4.940742 4288716960
20.387691 8.1450367 4.8261747 4288651167
19.888844 7.7834606 4.7129583 4288651167
19.482056 7.4844809 4.6206598 4288716960
22.857925 9.8486052 5.3430824 4288782753
22.018805 9.2532225 5.155242 4288782753
21.366261 8.7848139 5.0091243 4288782753
20.731604 8.3319321 4.867053 4288782753
20.173092 7.9321461 4.7420907 4288848546
22.423094 9.4757805 5.203568 4288980132
21.597574 8.8955307 5.0213122 4288914339
21.030779 8.4877815 4.8962116 4289045925
20.505234 8.1100149 4.780189 4289045925
22.673668 9.5958929 5.2161703 4289177511
21.926167 9.0678606 5.0534959 4289309097
21.460608 8.7260885 4.9521122 4289374890
22.540222 9.4223013 5.145062 4289703855
21.969275 9.0124674 5.0222745 4289769648
22.736925 9.5052643 5.1444774 4289967027
22.343063 7.7966971 5.0095787 4289506476
22.465021 7.906353 4.9909172 4290756543
22.522434 7.8943105 5.0016026 4290756543
22.170254 7.7040868 4.8885708 4291085508
18.753246 -3.5871618 4.1072111 4288387995
18.975218 -3.6611679 4.1213799 4288453788
19.227711 -3.7452857 4.1412449 4288585374
16.062975 -2.7003832 3.5314593 4287598479
16.036095 -2.7153316 3.5264108 4286743170
16.057749 -2.7470419 3.5302644 4285887861
16.086597 -2.7813916 3.5355427 4285493103
16.12431 -2.8190796 3.5423334 4285295724
16.166895 -2.8587792 3.549794 4285164138
16.217236 -2.9015048 3.5588095 4285098345
16.271807 -2.9460683 3.5686157 4285098345
16.331284 -2.9927409 3.5794184 4285032552
19.422815 -3.8101568 4.1482377 4288651167
16.051445 -2.6954765 3.5088522 4287730065
16.027828 -2.7115207 3.5045061 4286743170
16.049891 -2.7434225 3.5080049 4285887861
16.084038 -2.7794871 3.5148458 4285558896
16.123701 -2.8178453 3.5219784 4285361517
16.168026 -2.8581638 3.5296578 4285229931
16.220291 -2.9015844 3.5389099 4285164138
16.276129 -2.946629 3.5487368 4285098345
16.337914 -2.9941528 3.5598385 4285098345
16.405228 -3.0440958 3.5719101 4285098345
16.500845 -3.1050341 3.5888035 4285295724
22.026264 7.5857944 4.6915464 4290624957
19.80279 -3.9372847 4.1897602 4288716960
16.062881 -2.6979928 3.4929628 4287861651
16.033131 -2.7121742 3.4864881 4286874756
16.065598 -2.747436 3.4933128 4286019447
16.094875 -2.7820346 3.4981797 4285624689
16.137365 -2.8213992 3.5058935 4285493103
16.178947 -2.8609192 3.5122197 4285295724
16.234137 -2.9054253 3.5218771 4285229931
16.291649 -2.9511445 3.5317307 4285164138
16.357359 -3.0001445 3.5434272 4285164138
16.428669 -3.051631 3.5559831 4285164138
16.524841 -3.112932 3.5722041 4285361517
17.209686 -3.3961515 3.6906745 4285953654
22.829563 -5.5418997 4.7401066 4286874756
22.230762 7.6959171 4.6889515 4290756543
22.991926 0.3018032 4.7662158 4294375158
22.963697 0.2572535 4.760675 4294309365
22.883665 0.21233097 4.7456317 4294243572
22.86644 0.16849253 4.7422538 4294243572
22.841146 0.1246893 4.7374692 4294243572
22.916618 0.081284203 4.7513776 4294177779
22.975212 0.037448 4.7622523 4294177779
20.268707 -4.093493 4.2447758 4288782753
16.080296 -2.7027857 3.4771221 4287927444
16.05599 -2.7186689 3.4729633 4287269514
16.076418 -2.7501211 3.475951 4286282619
16.10792 -2.7854824 3.481432 4285690482
16.147661 -2.8240242 3.4879692 4285558896
16.190529 -2.8640459 3.4943511 4285361517
16.241499 -2.9072177 3.5022767 4285229931
16.307186 -2.955817 3.5140474 4285164138
16.369217 -3.0036378 3.5242169 4285164138
16.443659 -3.0563238 3.537081 4285164138
16.550882 -3.1217153 3.5553493 4285361517
17.188927 -3.387253 3.6645961 4285822068
21.665621 -5.1022973 4.4853163 4286545791
22.965422 0.38944405 4.7173934 4294440951
22.810627 0.34231877 4.6887579 4294375158
22.696987 0.29684716 4.6676726 4294375158
22.581873 0.2519722 4.6464114 4294309365
22.489017 0.2080698 4.6292648 4294309365
22.452503 0.16529191 4.6224227 4294309365
22.467518 0.12298872 4.6250329 4294309365
22.527847 0.080714695 4.6359658 4294243572
22.63378 0.03804468 4.6552777 4294243572
22.768387 -0.0055003883 4.6798844 4294177779
22.968775 -0.051744822 4.7163644 4293783021
20.535633 -4.1828642 4.2593231 4288782753
16.102074 -2.7092054 3.4614949 4288059030
16.073204 -2.7235527 3.4568009 4287335307
16.093983 -2.7551467 3.4599965 4286348412
16.115116 -2.7871747 3.4622374 4285756275
16.157122 -2.8265064 3.4692523 4285558896
16.207813 -2.8692205 3.477607 4285295724
16.2679 -2.9156089 3.4876606 4285164138
16.32831 -2.9625378 3.4973948 4285098345
16.404751 -3.0155444 3.5107937 4285098345
16.474209 -3.066648 3.5217035 4285164138
16.572903 -3.1291368 3.5370862 4285361517
17.175499 -3.381227 3.6394646 4285690482
20.901003 -4.8133912 4.3088684 4286414205
22.903744 0.43191382 4.6621666 4294440951
22.635927 0.38186136 4.6137066 4294440951
22.458925 0.3353017 4.5815339 4294440951
22.326542 0.29057953 4.5574145 4294375158
22.195902 0.24661368 4.5337038 4294375158
22.08235 0.20366952 4.5131192 4294309365
22.027042 0.16198763 4.5030165 4294309365
22.020033 0.12089404 4.5016398 4294309365
22.066896 0.079975896 4.5099874 4294309365
22.165724 0.038725615 4.5277214 4294243572
22.361685 -0.0036754701 4.5629034 4294243572
22.515371 -0.048551008 4.5904236 4293783021
20.725283 -4.2462487 4.2581334 4288782753
16.123203 -2.7155526 3.4450946 4288059030
16.082865 -2.7261081 3.4380231 4287532686
16.104118 -2.7578819 3.4413393 4286348412
16.132799 -2.7924263 3.445719 4285756275
16.170837 -2.8305168 3.4513419 4285558896
16.223158 -2.8738647 3.4597802 4285361517
16.285526 -2.9211252 3.4700305 4285164138
16.356028 -2.9716609 3.4819648 4285098345
16.428627 -3.0234714 3.4937515 4285098345
16.499479 -3.0751812 3.5045674 4285164138
16.608465 -3.1415067 3.5218103 4285295724
17.179937 -3.3822348 3.6155858 4285690482
20.6416 -4.7150512 4.2259884 4286348412
22.957426 0.47745916 4.6276917 4294572537
22.678482 0.42604294 4.5780158 4294506744
22.385057 0.37608138 4.525825 4294440951
22.183844 0.32980466 4.4898949 4294440951
22.031054 0.28556925 4.4625597 4294440951
21.875481 0.24216224 4.4348359 4294440951
21.732477 0.19988729 4.4093966 4294375158
21.652918 0.15908495 4.3951859 4294309365
21.619919 0.11902369 4.3892565 4294309365
21.650476 0.079312913 4.3946004 4294309365
21.740957 0.039349336 4.4105821 4294309365
21.89082 -0.0016211467 4.4370885 4294243572
22.084599 -0.045621552 4.471168 4293717228
22.573427 -0.094541878 4.556839 4292927712
22.905573 -0.14308515 4.6150947 4293125091
20.971096 -4.3285689 4.2660222 4288782753
16.136549 -2.7193995 3.4266376 4288059030
16.094725 -2.729435 3.4197357 4287532686
16.117281 -2.7616861 3.4232922 4286611584
16.14749 -2.7967987 3.4279091 4285756275
16.188461 -2.8359401 3.4341042 4285558896
16.243374 -2.8802688 3.442826 4285361517
16.308874 -2.9287186 3.4534273 4285164138
16.38224 -2.9803808 3.4655504 4285098345
16.46022 -3.0342309 3.47808 4285098345
16.543697 -3.0905876 3.4914546 4285098345
16.652838 -3.1571805 3.5079041 4285229931
17.194918 -3.3871467 3.5940218 4285624689
20.427233 -4.6337142 4.152555 4286348412
22.772202 0.47204977 4.5510359 4294638330
22.451122 0.42011431 4.4948716 4294572537
22.214417 0.37214714 4.4533191 4294572537
21.990839 0.32593644 4.4140959 4294572537
21.731285 0.28047073 4.3687487 4294506744
21.541716 0.2375185 4.3355904 4294506744
21.367613 0.19593245 4.3051867 4294375158
21.259695 0.15602222 4.2863026 4294375158
21.200449 0.11704375 4.2759318 4294375158
21.215036 0.078596421 4.2784276 4294375158
21.300613 0.039974656 4.2933011 4294375158
21.405128 0.00044225401 4.3115368 4294309365
21.712948 -0.043314628 4.3646812 4293519849
22.130611 -0.089820303 4.436676 4292861919
22.409969 -0.13652803 4.4847779 4293256677
22.555637 -0.18412785 4.509274 4294111986
22.535543 -0.22721691 4.5057564 4294375158
22.662657 -0.2728523 4.5279374 4294375158
22.86787 -0.32117087 4.5637064 4294375158
21.39024 -4.4693274 4.3030128 4288914339
16.338533 -2.9385962 3.4379199 4285164138
16.416203 -2.9919171 3.4505055 4285098345
16.500782 -3.0482793 3.4639339 4285098345
16.586205 -3.1055114 3.4771628 4285098345
16.693613 -3.1716657 3.492471 4285229931
17.225142 -3.397881 3.574399 4285558896
20.088118 -4.5053554 4.0593553 4286216826
22.99469 0.52274942 4.5455265 4294769916
22.592257 0.46679085 4.4764128 4294704123
22.311939 0.416482 4.4280739 4294704123
21.959545 0.36626196 4.3675599 4294638330
21.712305 0.32034451 4.3249536 4294638330
21.424126 0.27523702 4.2754922 4294572537
21.274464 0.23379707 4.2496424 4294572537
21.055412 0.19255577 4.2121062 4294506744
20.91148 0.1533111 4.1874189 4294440951
20.818052 0.11523657 4.1714172 4294440951
20.813316 0.077935576 4.1705909 4294440951
20.840252 0.040587991 4.1752663 4294440951
20.940048 0.0023314762 4.1923933 4294243572
21.252497 -0.040230356 4.2453718 4293388263
21.584291 -0.083946429 4.3016353 4292861919
21.864151 -0.12921926 4.3489428 4293388263
21.98155 -0.17448518 4.368258 4294177779
22.043964 -0.21722297 4.3789043 4294440951
22.173977 -0.26140645 4.4012604 4294440951
22.406225 -0.30893773 4.4410529 4294375158
22.672735 -0.3589426 4.4866838 4294375158
22.927761 -0.410193 4.5304408 4294309365
21.823793 -4.6149888 4.3399949 4288980132
16.785051 -3.2047813 3.4866385 4285098345
17.301634 -3.4258323 3.5632272 4285493103
19.617054 -4.3272672 3.9463365 4286151033
19.702726 -4.3945885 3.9620631 4286151033
22.433498 9.1463594 4.4372926 4286940549
22.776217 0.5156948 4.4644451 4294769916
22.416636 0.46165761 4.4036179 4294769916
21.998032 0.40828454 4.3330121 4294704123
21.710367 0.36049089 4.2843027 4294704123
21.433008 0.31472486 4.2373724 4294704123
21.106054 0.26981452 4.1822686 4294638330
20.918385 0.2288229 4.1504955 4294638330
20.660715 0.18824953 4.1071515 4294572537
20.476467 0.14988929 4.0761566 4294572537
20.349613 0.11297788 4.054853 4294572537
20.278811 0.076973334 4.0430274 4294506744
20.352337 0.041191161 4.0553999 4294506744
20.432549 0.0043496601 4.0689673 4294243572
20.754284 -0.036814682 4.1225395 4293190884
21.024338 -0.077921756 4.167614 4292861919
21.329212 -0.12215472 4.218173 4293519849
21.417723 -0.16493933 4.2324357 4294309365
21.550295 -0.20718233 4.2546816 4294440951
21.7493 -0.25143331 4.288188 4294506744
22.010044 -0.29841268 4.3320851 4294506744
22.271574 -0.34705845 4.3761601 4294440951
22.597584 -0.3993336 4.4310308 4294440951
22.935209 -0.45402128 4.4878731 4294375158
21.996729 -4.6728778 4.3300071 4288980132
17.426365 -3.4718847 3.5593727 4285558896
19.353064 -4.2273054 3.8700318 4286085240
19.176374 -4.1941504 3.8424041 4285887861
22.538656 9.2129679 4.4093175 4284637794
21.436062 8.4771872 4.2378097 4285690482
20.471478 7.8340697 4.0891433 4286216826
20.228575 7.6457686 4.0508456 4286808963
20.003029 7.469728 4.0144439 4286677377
19.801657 7.3098726 3.9824107 4286808963
22.59314 7.8060822 4.4514008 4288782753
22.568146 0.50897288 4.3864193 4294835709
22.15634 0.4540529 4.3180542 4294769916
21.775618 0.40246934 4.2548389 4294769916
21.371748 0.35265154 4.1879234 4294704123
21.065004 0.30731821 4.1369638 4294704123
20.779921 0.26424855 4.0896463 4294704123
20.472519 0.22257924 4.0387945 4294704123
20.253122 0.18378626 4.002459 4294638330
19.958597 0.14578351 3.9539423 4294638330
19.801178 0.11029527 3.9280045 4294638330
19.767368 0.076045178 3.9224472 4294638330
19.786076 0.041830543 3.9256344 4294572537
19.91913 0.0063034003 3.947612 4294111986
20.254517 -0.033341199 4.0024505 4292993505
20.475327 -0.072019637 4.038754 4292796126
20.769344 -0.11476389 4.0865364 4293651435
20.880468 -0.15582052 4.1043658 4294375158
21.049952 -0.19701396 4.1323586 4294572537
21.278177 -0.24041393 4.1701064 4294572537
21.570297 -0.28678036 4.2184124 4294572537
21.89946 -0.33601889 4.2728295 4294572537
22.261637 -0.38830781 4.3327036 4294572537
22.594429 -0.4418135 4.387816 4294506744
22.967314 -0.49890828 4.4494815 4294506744
22.105114 -4.7089996 4.308558 4288980132
17.586155 -3.5309682 3.5613441 4285427310
18.377045 -3.8581529 3.6873085 4285558896
18.700518 -4.0123258 3.7391751 4285493103
23.038538 9.5731726 4.4451971 4282927176
22.421883 9.1394558 4.3481722 4283321934
21.802296 8.7075186 4.2514343 4283453520
21.237829 8.3136549 4.1639309 4284045657
20.853464 8.0351324 4.1044054 4284374622
20.485228 7.7688379 4.0479016 4284374622
20.133614 7.5149465 3.9942343 4284835173
19.838705 7.2979455 3.948777 4284572001
19.620899 7.1297431 3.9150624 4284703587
19.417767 6.9717498 3.8835354 4284308829
22.874243 0.56265455 4.3933969 4294835709
22.371759 0.50262928 4.3115659 4294835709
21.907135 0.44676614 4.2358775 4294835709
21.474228 0.39457837 4.165349 4294769916
21.027447 0.34468186 4.0926876 4294769916
20.695715 0.29987803 4.038579 4294769916
20.368483 0.25721535 3.9852891 4294769916
20.09577 0.21730068 3.940886 4294704123
19.763426 0.17839773 3.8870254 4294704123
19.478777 0.14196534 3.8409545 4294704123
19.269812 0.10768165 3.8071914 4294704123
19.179235 0.074933328 3.7926114 4294638330
19.219231 0.042409975 3.7991729 4294572537
19.363035 0.0083895428 3.8224754 4293980400
19.695997 -0.029280657 3.8759515 4292927712
19.896135 -0.065845169 3.9083464 4292861919
20.204023 -0.10731228 3.9573848 4293980400
20.318594 -0.14622866 3.9756181 4294440951
20.516541 -0.18619668 4.0077682 4294572537
20.774544 -0.22866388 4.0496769 4294638330
21.10074 -0.27438956 4.1026444 4294638330
21.465134 -0.32321146 4.1618056 4294638330
21.865273 -0.37539196 4.226758 4294638330
22.259228 -0.42981255 4.2907605 4294638330
22.655098 -0.4867622 4.3550682 4294572537
22.988424 9.5415401 4.3932438 4282071867
22.395006 9.1226397 4.3015385 4282071867
21.817715 8.7173605 4.2128448 4282269246
21.286575 8.3443003 4.1319237 4282400832
20.870359 8.0458345 4.0687866 4282664004
20.482292 7.767221 4.0105081 4282861383
20.144154 7.5216789 3.9595804 4282795590
19.83176 7.2939134 3.9127047 4282992969
19.58869 7.1103134 3.8759947 4283256141
19.353491 6.9329467 3.8403451 4283124555
22.746742 0.55815417 4.3292046 4294835709
22.191729 0.49681562 4.2405238 4294835709
21.671545 0.43987328 4.1573935 4294835709
21.184513 0.38698113 4.0795541 4294769916
20.763256 0.33856395 4.0121799 4294769916
20.3269 0.29244187 3.9425108 4294769916
19.956221 0.25015819 3.8832898 4294769916
19.635851 0.21083874 3.8321347 4294769916
19.265577 0.17290476 3.7732522 4294704123
18.918579 0.13747925 3.718174 4294704123
18.660404 0.1046528 3.6772602 4294704123
18.591259 0.073805466 3.6663294 4294704123
18.608265 0.042998374 3.6691539 4294506744
18.832951 0.010158183 3.7047555 4293783021
19.06546 -0.024557214 3.7414827 4292927712
19.453751 -0.061196279 3.8029671 4293256677
19.647945 -0.099984571 3.833087 4294243572
19.766962 -0.13676432 3.8519046 4294506744
19.987001 -0.17545415 3.887033 4294572537
20.2763 -0.21703979 3.9331684 4294638330
20.637743 -0.26217765 3.9907801 4294638330
21.040045 -0.31068507 4.0548997 4294638330
21.483194 -0.3629463 4.1255021 4294638330
21.906805 -0.41724002 4.1930752 4294638330
22.339048 -0.47451565 4.261982 4294572537
22.767279 -0.53427583 4.3302698 4294506744
22.94743 9.5157175 4.3425508 4281611316
22.376352 9.1110392 4.2559338 4281677109
21.818768 8.7181988 4.171855 4281808695
21.302891 8.354681 4.0948472 4281940281
20.869141 8.0452557 4.0306587 4282006074
20.474995 7.7628937 3.9726999 4282203453
20.138559 7.5184264 3.923136 4282335039
19.824608 7.2897234 3.8771155 4282664004
19.576523 7.1030941 3.8403919 4282729797
19.336081 6.9225702 3.8049057 4282795590
22.647156 0.55464458 4.2701683 4294835709
22.03368 0.49171582 4.1740279 4294835709
21.453253 0.43348578 4.0830569 4294835709
20.907425 0.37970874 3.9975026 4294769916
20.41791 0.33056375 3.9207458 4294769916
19.962021 0.28508326 3.8492937 4294769916
19.546284 0.24313466 3.7841461 4294769916
19.1812 0.20443451 3.7269752 4294769916
18.762934 0.16734831 3.6617339 4294704123
18.336399 0.13279635 3.5953603 4294704123
18.014462 0.10141313 3.545336 4294704123
17.928392 0.072490774 3.5319898 4294704123
17.968338 0.043573637 3.5383196 4294440951
18.186338 0.012708705 3.5722222 4293717228
18.468403 -0.020038808 3.6159964 4293125091
18.898327 -0.055391666 3.6827748 4293519849
19.048019 -0.091784999 3.7054653 4294309365
19.201145 -0.12705876 3.7293534 4294506744
19.487909 -0.1653073 3.7742295 4294506744
19.809099 -0.20612198 3.8245008 4294572537
20.184713 -0.25023988 3.8832915 4294638330
20.6285 -0.29856732 3.9527011 4294638330
21.121508 -0.35116723 4.029758 4294638330
21.571823 -0.40529674 4.1002741 4294572537
22.027105 -0.46244293 4.1715164 4294506744
22.507097 -0.52337086 4.2465844 4294440951
22.967289 -0.5864585 4.3184996 4294309365
22.903927 9.4883156 4.2916484 4281348144
22.345247 9.0916204 4.2080398 4281413937
21.808329 8.7118645 4.1285181 4281545523
21.316175 8.3632069 4.0566173 4281677109
20.875765 8.049612 3.9928234 4281742902
20.477545 7.7647157 3.9356122 4281874488
20.143671 7.5218244 3.8875315 4282006074
19.832973 7.295095 3.8431993 4282400832
19.567108 7.0975823 3.8049667 4282861383
22.583456 0.5524109 4.2172585 4294835709
21.905006 0.48757151 4.1130123 4294835709
21.258184 0.42778021 4.0136228 4294835709
20.647139 0.37287408 3.9197237 4294835709
20.18195 0.32506651 3.8480375 4294769916
19.607492 0.27793393 3.759872 4294769916
19.145414 0.2362639 3.6888645 4294769916
18.738379 0.1981867 3.6263576 4294769916
18.348537 0.16276042 3.5666294 4294769916
17.731464 0.1279123 3.4725938 4294704123
17.339703 0.097996011 3.4129198 4294638330
17.251919 0.071092516 3.399565 4294572537
17.305805 0.044093229 3.4078937 4294177779
17.500202 0.015541528 3.437592 4293717228
17.852224 -0.015423061 3.491199 4293388263
18.301962 -0.049124859 3.5597401 4293651435
18.488255 -0.084066868 3.5875807 4294309365
18.742014 -0.11913402 3.6263976 4294309365
19.044548 -0.15629821 3.6728952 4294309365
19.566547 -0.20026858 3.752718 4294375158
19.967276 -0.24431382 3.8142657 4294440951
20.642611 -0.2986297 3.917448 4294375158
21.379772 -0.35903263 4.0299907 4294309365
22.370968 -0.43287444 4.1807809 4294111986
22.865486 9.464119 4.241817 4281150765
22.303791 9.0656605 4.159121 4281216558
21.787884 8.6992493 4.0837226 4281282351
21.325317 8.3691397 4.0176897 4281413937
20.885242 8.0557404 3.9553266 4281611316
20.487715 7.7712526 3.8995478 4281742902
20.152395 7.5274286 3.8527 4281808695
19.851171 7.3065085 3.8104084 4281940281
19.573273 7.1015992 3.7714975 4282137660
22.565844 0.55181462 4.1716866 4294835709
21.814768 0.48467615 4.058579 4294835709
21.196613 0.42595702 3.9653025 4294769916
20.513485 0.36933997 3.8624165 4294769916
19.87929 0.31804302 3.7668812 4294769916
19.265985 0.27104717 3.6745596 4294769916
18.754997 0.22956964 3.5975754 4294769916
18.305357 0.19206738 3.5298784 4294769916
18.039221 0.15931569 3.4896543 4294638330
17.982622 0.12969415 3.4808176 4294309365
18.295689 0.1015906 3.5272 4293519849
18.50248 0.071593218 3.5578296 4292927712
18.574139 0.040752143 3.568475 4292401368
18.735312 0.0090768645 3.5925632 4292138196
18.891691 -0.023204016 3.6161525 4292006610
19.175905 -0.058958296 3.6585021 4292598747
19.265459 -0.094767511 3.6714494 4293519849
19.603508 -0.13323636 3.7221713 4293454056
19.96221 -0.17411609 3.7761052 4293388263
20.432304 -0.21962725 3.8467193 4293388263
20.99556 -0.27042961 3.9312041 4293454056
21.560089 -0.32476968 4.0158734 4293519849
22.149937 -0.38330141 4.1043725 4293519849
22.783339 -0.44702899 4.1992426 4293322470
22.831621 9.4428244 4.1929045 4281084972
22.260561 9.0385799 4.1102743 4281150765
21.754225 8.6783247 4.0374522 4281150765
21.322554 8.3676186 3.9773378 4281282351
20.892353 8.0603809 3.9177117 4281413937
20.499548 7.7788019 3.8639281 4281742902
20.171125 7.5392156 3.8188796 4281874488
19.864439 7.3148794 3.7771842 4282006074
19.585114 7.1090684 3.7389839 4281940281
22.721127 0.55730867 4.1515408 4294769916
21.880703 0.48680493 4.0275645 4294769916
21.077385 0.42248306 3.9090488 4294769916
20.317848 0.36421189 3.7969637 4294769916
19.602654 0.31162125 3.6914105 4294769916
18.92938 0.26424813 3.5920761 4294769916
18.356329 0.22271572 3.5074787 4294769916
17.950357 0.18700768 3.4474087 4294704123
17.608299 0.15448597 3.3968441 4294572537
17.418152 0.12508956 3.3686635 4294111986
17.487879 0.097622521 3.3786004 4293388263
17.634056 0.070051596 3.3997693 4292796126
17.805508 0.041794978 3.4247658 4292203989
18.034117 0.012085495 3.4582229 4291611852
18.376415 -0.019524589 3.5084505 4291151301
18.760551 -0.054831419 3.5644827 4292072403
18.739923 -0.087352253 3.5613728 4293322470
19.049696 -0.12380237 3.607053 4293519849
19.461641 -0.1640503 3.6677678 4293519849
20.011761 -0.20987217 3.7487111 4293519849
20.588408 -0.25974923 3.8335705 4293717228
21.253099 -0.31576908 3.9311619 4293914607
21.941225 -0.37653899 4.0322032 4293980400
22.770227 -0.44640979 4.1536293 4293914607
22.766558 9.4018803 4.1371403 4281282351
22.175419 8.9851151 4.0548916 4281150765
21.705025 8.6476431 3.9893339 4281084972
21.305111 8.3569431 3.9346445 4281150765
20.895184 8.0623722 3.8791547 4281216558
20.515945 7.7891889 3.8285906 4281479730
20.191837 7.552218 3.7852614 4281742902
19.883472 7.3267984 3.7444413 4282006074
19.601532 7.1193423 3.7068298 4282071867
22.956234 0.56564689 4.1420026 4294769916
22.015171 0.49116796 4.0060749 4294769916
21.017258 0.4207496 3.8620765 4294769916
20.170666 0.36035654 3.7397203 4294769916
19.360781 0.30600139 3.6226652 4294769916
18.607355 0.25772956 3.5137806 4294769916
17.955606 0.21580318 3.4195507 4294769916
17.489187 0.18043256 3.3519664 4294704123
17.262194 0.15052021 3.3187716 4294572537
17.45792 0.12529774 3.3461521 4294506744
17.728294 0.099320322 3.3844018 4294440951
18.119448 0.071226113 3.4401357 4293980400
18.426897 0.040511705 3.4839578 4293322470
18.42384 0.0095715066 3.4835415 4292598747
18.422623 -0.02088161 3.4836314 4292138196
18.358772 -0.050764639 3.4749374 4292532954
18.345434 -0.081560835 3.4732661 4293190884
18.733936 -0.11821452 3.5292983 4293651435
19.480253 -0.16412057 3.6364365 4294046193
20.300985 -0.21621393 3.7542386 4294243572
21.002605 -0.27035552 3.8550305 4294375158
21.745523 -0.32990202 3.9617431 4294440951
22.558975 -0.39615613 4.0785065 4294440951
22.727669 9.3774576 4.0864191 4281413937
22.115383 8.9474974 4.0028172 4281216558
21.67108 8.6265421 3.9433734 4281019179
21.291334 8.3485651 3.8922915 4281084972
20.899494 8.0652723 3.8409886 4281150765
20.539804 7.8042006 3.7939198 4281216558
20.219038 7.5692229 3.7521806 4281348144
19.90766 7.3418851 3.7120721 4281611316
19.622107 7.1321621 3.6749465 4281808695
22.252325 0.49886784 3.998307 4294704123
21.237236 0.42719477 3.854769 4294704123
20.178875 0.3605746 3.705224 4294704123
19.251635 0.30345252 3.5740502 4294704123
18.389759 0.25330386 3.4521205 4294704123
17.636084 0.21026579 3.3454604 4294704123
17.082808 0.17461383 3.2670097 4294638330
16.675873 0.14395387 3.2092314 4294572537
16.699244 0.11916596 3.2118449 4294506744
16.800129 0.094663918 3.2255454 4294440951
17.146004 0.069382243 3.2737637 4293980400
17.395555 0.041704442 3.3085861 4293322470
17.592894 0.013247418 3.3362503 4292927712
17.78182 -0.016171481 3.3629396 4292927712
17.842897 -0.045423493 3.3719523 4293125091
18.134192 -0.078195766 3.4132073 4293059298
19.076628 -0.12313264 3.5455773 4293125091
19.610861 -0.16601609 3.621006 4293388263
20.053267 -0.21025099 3.683562 4293783021
20.68803 -0.26204509 3.7729719 4294177779
21.477505 -0.32199246 3.884042 4294309365
22.366194 -0.3898252 4.008935 4294309365
22.630907 9.3164215 4.0263677 4281150765
22.103357 8.9401646 3.9565411 4281019179
21.679398 8.6320047 3.9017694 4280953386
21.302755 8.3559246 3.8530965 4280953386
20.922583 8.0798683 3.8045425 4281019179
20.56883 7.8224082 3.7596068 4281019179
20.249517 7.5882492 3.7192173 4281084972
19.942257 7.3633733 3.6803281 4281150765
19.646828 7.1475163 3.6433339 4281348144
22.735683 0.51453251 4.0230012 4294638330
21.585592 0.4374198 3.8639147 4294638330
20.465939 0.36810094 3.7090075 4294638330
19.385183 0.30652428 3.5594537 4294572537
18.371763 0.25289196 3.4192092 4294572537
17.467697 0.20730779 3.2940705 4294572537
16.723381 0.1694649 3.1909885 4294572537
16.175367 0.13833021 3.1149924 4294506744
15.939188 0.11299895 3.081929 4294440951
15.865601 0.089945108 3.0713978 4294309365
16.131489 0.067442171 3.1076179 4293848814
16.34083 0.043016952 3.1362255 4293190884
16.614107 0.017625062 3.1737919 4292927712
16.98177 -0.010134213 3.2244492 4293256677
17.296766 -0.039755743 3.2679942 4293651435
17.920738 -0.075031549 3.3540959 4293717228
18.631994 -0.11556074 3.4522386 4293322470
19.643162 -0.16621688 3.5914006 4292993505
20.658022 -0.22309493 3.7311113 4292993505
21.528296 -0.28260165 3.8509648 4293322470
21.591242 -0.32487866 3.860275 4293717228
22.31575 -0.38801634 3.9601035 4294046193
22.576563 9.2822523 3.9712269 4280887593
22.115213 8.9478741 3.9129243 4280953386
21.708447 8.6504841 3.8618259 4280953386
21.331917 8.3743973 3.8146114 4280953386
20.960316 8.1035976 3.7684989 4280953386
20.603268 7.8439775 3.7251799 4281019179
20.284159 7.6098523 3.6860249 4281019179
19.972834 7.3823948 3.6477213 4281084972
19.683718 7.1703262 3.6121912 4281150765
22.221361 0.4560833 3.9096868 4294440951
20.913486 0.37987402 3.7327981 4294440951
19.814903 0.31647229 3.5839126 4294440951
18.590527 0.25726348 3.4182768 4294440951
17.473532 0.20734376 3.2671537 4294440951
16.444336 0.16545172 3.1279924 4294440951
15.637208 0.13229735 3.0187907 4294440951
15.164978 0.10670611 2.9547167 4294375158
14.954446 0.085314952 2.9259956 4294177779
15.056097 0.065406613 2.9394193 4293783021
15.283348 0.044337645 2.9698386 4293059298
15.660839 0.021885589 3.0206625 4292861919
16.109373 -0.003615537 3.0811555 4293256677
16.597347 -0.032355957 3.147032 4293783021
17.441742 -0.068421982 3.2609124 4293848814
18.418438 -0.11181802 3.3925676 4293651435
19.626234 -0.16559513 3.55516 4293388263
20.614441 -0.22185108 3.6884363 4293059298
21.84445 -0.29028872 3.8538704 4292796126
22.552288 9.2670221 3.9237134 4280887593
22.104029 8.9410028 3.867589 4280953386
21.705605 8.6488943 3.8190281 4281019179
21.336813 8.377677 3.7734218 4281019179
20.97576 8.1134357 3.7299368 4281019179
20.650682 7.8736024 3.6905186 4281019179
20.333355 7.6404457 3.6529388 4281084972
20.017195 7.4098945 3.6152165 4281084972
19.712395 7.188118 3.5796888 4281150765
19.429815 6.9816675 3.5457089 4281150765
21.721552 0.40112969 3.8014293 4294243572
20.236092 0.3263146 3.6049981 4294243572
18.775558 0.26103339 3.4118955 4294243572
17.408825 0.20623617 3.2311985 4294243572
16.163166 0.16144688 3.0665569 4294309365
15.10223 0.12630831 2.9263427 4294309365
14.377645 0.10030117 2.8304892 4294177779
13.955559 0.080244742 2.774606 4294046193
13.977988 0.06333939 2.777319 4293651435
14.198049 0.04569361 2.8061817 4292993505
14.70251 0.026105434 2.8726418 4292796126
15.343267 0.0020572897 2.9570584 4293322470
16.098524 -0.02708791 3.0565753 4293914607
17.167143 -0.064621754 3.1974289 4294046193
18.391481 -0.11119612 3.3587279 4293914607
19.930119 -0.17124633 3.5611026 4293848814
21.551815 -0.24242736 3.774359 4293848814
22.784735 -0.31375644 3.9366512 4293585642
22.994946 9.5922413 3.935859 4280887593
22.516497 9.2444849 3.8753622 4280953386
22.078924 8.9253368 3.8208158 4280953386
21.691357 8.6401472 3.7740016 4280953386
21.330584 8.373992 3.730684 4281019179
20.983992 8.1187859 3.6896589 4281019179
20.668795 7.8850708 3.6518488 4281019179
20.373545 7.6654897 3.6174104 4281019179
20.051632 7.4312911 3.5811574 4281019179
19.753448 7.2134891 3.5468063 4281019179
19.473516 7.0085316 3.5144682 4281084972
22.673828 0.42629927 3.8841538 4294111986
20.954636 0.34313563 3.6620407 4294111986
19.214689 0.26999751 3.4373007 4294111986
17.522583 0.2082478 3.2187843 4294111986
15.990833 0.15902029 3.0209813 4294177779
14.586127 0.12055324 2.839689 4294177779
13.598718 0.09396559 2.7121496 4294046193
12.951569 0.075133808 2.6285851 4293914607
12.823346 0.061085988 2.6119134 4293585642
13.105142 0.047031179 2.6480927 4292927712
13.785575 0.030085683 2.735739 4292796126
14.631417 0.0073320661 2.844661 4293322470
15.625134 -0.022042535 2.9726536 4293914607
16.969296 -0.061843276 3.1457233 4294046193
18.525372 -0.11322875 3.3459332 4294046193
20.218363 -0.17669106 3.5635948 4293980400
22.044674 -0.25332507 3.7982593 4293980400
22.92058 9.5450506 3.8811126 4280821800
22.460068 9.2088833 3.8238111 4280821800
22.045723 8.9045486 3.7737131 4280887593
21.668161 8.6257572 3.7285666 4280887593
21.306818 8.3593369 3.6858282 4280887593
20.969616 8.1100607 3.6466079 4280887593
20.67384 7.8884044 3.6129339 4280953386
20.379881 7.6696148 3.5799267 4280953386
20.073704 7.4450788 3.5457683 4280953386
19.77298 7.2256727 3.5126905 4280953386
19.492147 7.0201168 3.4817393 4281019179
22.206675 0.37246579 3.782104 4294046193
20.145378 0.2889885 3.5221114 4294046193
18.048361 0.21740888 3.2577026 4294046193
16.123693 0.16096747 3.0149922 4294111986
14.325233 0.1176604 2.7882946 4294111986
12.871799 0.088061117 2.6051366 4294046193
11.916073 0.069854513 2.4847083 4293980400
11.649137 0.058755897 2.4509966 4293717228
12.007346 0.048345964 2.4960024 4292927712
12.996442 0.033479676 2.6204345 4292861919
14.134264 0.011018086 2.7635844 4293519849
15.442721 -0.020045161 2.9282167 4293914607
17.096554 -0.063440055 3.1361885 4294046193
18.909779 -0.11942068 3.3640869 4293980400
20.827999 -0.18842897 3.6049435 4293980400
22.852606 -0.27135271 3.8589978 4293980400
22.833576 9.4898129 3.8251164 4280821800
22.365026 9.1488171 3.7677147 4280887593
21.994623 8.8724728 3.7245691 4280887593
21.636713 8.6061716 3.6830173 4280887593
21.281786 8.3438616 3.6422968 4280821800
20.95162 8.0990534 3.6043408 4280887593
20.666283 7.8839221 3.5729654 4280887593
20.380899 7.6704507 3.5421426 4280953386
20.07984 7.4490671 3.5096502 4281019179
19.783106 7.2321029 3.4777074 4281084972
19.500443 7.0254259 3.4475794 4281150765
18.575939 6.2121511 3.3345354 4283716692
22.279793 0.33245516 3.7492287 4294111986
19.735598 0.24664381 3.4361119 4294111986
17.264404 0.17727722 3.1319442 4294177779
14.643497 0.12128284 2.8096905 4294243572
12.421917 0.084417634 2.5365911 4294177779
10.938863 0.06485261 2.3542523 4294111986
10.432465 0.056291673 2.2919583 4293848814
10.982178 0.049550693 2.3594494 4292796126
12.504949 0.03559906 2.5464621 4292927712
14.116562 0.011135603 2.7443433 4293651435
15.835833 -0.024049584 2.9555733 4293848814
17.911741 -0.07427448 3.2103405 4293848814
20.065897 -0.13829795 3.4745934 4293783021
22.355909 -0.21800213 3.7550197 4293717228
22.741566 9.4313812 3.7689412 4280756007
22.28199 9.0963421 3.7140779 4280821800
21.930128 8.8319435 3.6741238 4280821800
21.585804 8.5743685 3.6345515 4280821800
21.23908 8.3173485 3.5952878 4280887593
20.924744 8.0825167 3.5601821 4280887593
20.646006 7.8715649 3.5308621 4280887593
20.37191 7.6651225 3.5026305 4280953386
20.075901 7.4468875 3.4711537 4281019179
19.787386 7.2349615 3.4418075 4281084972
19.503435 7.027513 3.4125893 4281216558
19.21722 6.8203735 3.3832726 4281282351
18.658434 6.2605443 3.3087375 4283848278
19.087713 0.17105031 3.3219378 4293717228
14.289958 0.099697761 2.7477221 4293519849
10.60603 0.063140199 2.3066771 4293388263
9.2057543 0.053763803 2.1390312 4293059298
10.639538 0.049933329 2.3105724 4292006610
13.94765 0.029540485 2.7064123 4292203989
16.400675 -0.0057057464 2.999378 4292861919
19.424873 -0.061079308 3.3606439 4292796126
22.266165 -0.13223833 3.7000341 4292796126
22.634361 9.3632689 3.7107673 4280690214
22.20047 9.0448189 3.6609201 4280821800
21.84618 8.7791376 3.6210129 4280821800
21.525553 8.5366879 3.5851855 4280887593
21.201757 8.2941732 3.5496848 4280887593
20.900923 8.0678596 3.5177615 4280821800
20.624683 7.8585463 3.4900193 4280821800
20.356464 7.6558051 3.4629879 4280887593
20.07029 7.4436584 3.4340189 4280953386
19.787069 7.2350049 3.4057119 4281019179
19.502531 7.027226 3.3774171 4281150765
19.212107 6.8175707 3.3488343 4281348144
18.700752 6.2854662 3.2797651 4283914071
22.99052 9.6347122 3.7066255 4280558628
22.549515 9.3093729 3.6564164 4280624421
22.119331 8.9935274 3.6081886 4280756007
21.77054 8.7315502 3.5691757 4280821800
21.463053 8.4975758 3.5356898 4280821800
21.156769 8.2661943 3.5032332 4280821800
20.875696 8.0523167 3.475018 4280821800
20.588905 7.8365769 3.4470081 4280756007
20.332937 7.6415048 3.4218442 4280756007
20.057734 7.436172 3.3954484 4280821800
19.786617 7.2349582 3.3686945 4280887593
19.49925 7.0254917 3.3417153 4281084972
19.204739 6.8134017 3.3144901 4281282351
18.746496 6.3123622 3.2502191 4283979864
22.897501 9.5753307 3.6505346 4280492835
22.467281 9.2571297 3.6027486 4280624421
22.046898 8.9477348 3.5567975 4280756007
21.715015 8.6966343 3.5206401 4280756007
21.414631 8.4672861 3.4887164 4280821800
21.115837 8.2407389 3.4580743 4280821800
20.843683 8.0325403 3.4315114 4280821800
20.550642 7.8130579 3.4037929 4280756007
20.305704 7.6249118 3.3810182 4280756007
20.037998 7.4242706 3.3553665 4280756007
19.781189 7.2318621 3.3315334 4280821800
19.495476 7.0234466 3.3057113 4281019179
19.190468 6.805069 3.2781851 4281216558
18.771317 6.3270397 3.2191451 4284045657
22.808384 9.5184317 3.5953038 4280427042
22.392822 9.2098179 3.5503051 4280558628
21.988197 8.9106264 3.5072091 4280690214
21.662302 8.6634722 3.4725199 4280756007
21.365744 8.4366827 3.4416797 4280756007
21.052359 8.2011652 3.4094963 4280756007
20.799641 8.0052738 3.3868518 4280756007
20.512354 7.7895055 3.3605809 4280756007
20.269768 7.6029444 3.3387489 4280690214
20.023066 7.415308 3.317064 4280756007
19.773727 7.22752 3.2946479 4280821800
19.488384 7.0193768 3.269124 4280953386
19.182531 6.8005466 3.2426555 4281216558
18.77924 6.331871 3.1876781 4284045657
22.70351 9.4514227 3.5380347 4280361249
21.601624 8.6252441 3.4227183 4280624421
21.31505 8.4049234 3.3944812 4280690214
21.000444 8.1688013 3.363061 4280756007
20.720379 7.9560523 3.3365796 4280756007
20.444727 7.7477374 3.3121195 4280756007
20.208759 7.5654864 3.2920852 4280821800
19.973763 7.3852215 3.2717509 4280887593
19.740221 7.2072272 3.2511504 4281019179
19.478214 7.0133929 3.2300978 4281084972
19.174709 6.7960577 3.2050731 4281348144
18.939104 6.6212606 3.1846602 4281611316
18.775904 6.3301477 3.1553926 4284045657
20.953087 8.1392488 3.3170137 4280690214
20.661747 7.9196234 3.289403 4280756007
20.358624 7.6944571 3.2608762 4280887593
20.106245 7.5023699 3.2389345 4280953386
19.900354 7.3402815 3.2227643 4281019179
19.697685 7.1813684 3.2066698 4281150765
19.460911 7.0029945 3.1882513 4281348144
19.170729 6.7938223 3.1664252 4281479730
18.93079 6.6164856 3.1474049 4281742902
18.784298 6.4963632 3.1350002 4282203453
18.756945 6.3193259 3.1215596 4284045657
20.623631 7.8959455 3.2455392 4280756007
20.3312 7.6775389 3.2195735 4280887593
20.075001 7.4831657 3.1969891 4280953386
19.866966 7.3198833 3.1811504 4281019179
19.673126 7.1664701 3.1662731 4281150765
19.458252 7.0014639 3.149935 4281216558
19.177734 6.7981811 3.1297526 4281479730
18.926683 6.6142216 3.1118987 4281742902
18.781738 6.4950571 3.1002412 4282137660
18.670069 6.3965178 3.0908694 4282992969
18.725792 6.301404 3.0867133 4283979864
20.302139 7.6594849 3.1757665 4280821800
20.059235 7.4734631 3.1568191 4280887593
19.849033 7.3088851 3.1403062 4280953386
19.662884 7.1602321 3.1265473 4281019179
19.462851 7.004272 3.1117289 4281019179
19.187742 6.804285 3.0927255 4281216558
18.927887 6.6151037 3.0763016 4281545523
18.783184 6.4961028 3.0652843 4281874488
18.672161 6.3979578 3.0563807 4282729797
18.576077 6.3092957 3.0483418 4283190348
18.500774 6.2334194 3.0414932 4283387727
18.441067 6.1671271 3.0362656 4283387727
18.695574 6.28403 3.0521402 4283979864
20.053352 7.4697404 3.1160588 4280821800
19.848806 7.3086591 3.100534 4280953386
19.666964 7.1626525 3.0875978 4281019179
19.471838 7.0096693 3.073477 4281084972
19.196404 6.8095074 3.0551262 4281150765
18.940296 6.6225758 3.038785 4281348144
18.79248 6.5017095 3.0281227 4281677109
18.680542 6.4030108 3.0195858 4282466625
18.581539 6.3126082 3.01159 4283124555
18.503641 6.23522 3.0055842 4283256141
18.443785 6.1688762 3.0017438 4283321934
18.625956 6.2436633 3.0128949 4283914071
19.869417 7.3211274 3.0623007 4280821800
19.687113 7.1747961 3.0497267 4280953386
19.488766 7.0198092 3.0355484 4281019179
19.206377 6.8155079 3.0186017 4281216558
18.96508 6.6374345 3.0030375 4281348144
18.813974 6.5145564 2.9926243 4281677109
18.696566 6.4125586 2.9839809 4282532418
18.593958 6.319983 2.9758987 4283256141
18.512035 6.2402449 2.9709182 4283387727
18.45178 6.1736169 2.9662368 4283453520
18.549667 6.1993699 2.9727085 4283914071
19.717089 7.1929374 3.0136659 4280887593
19.507433 7.0310845 3.000154 4281019179
19.234472 6.8323908 2.9834182 4281150765
19.008612 6.6634774 2.9685609 4281348144
18.850925 6.5365639 2.9580996 4281940281
18.726542 6.4303155 2.9490566 4282598211
18.614321 6.3320374 2.9417682 4283387727
18.533306 6.2527275 2.9357755 4283519313
18.473551 6.1863003 2.9305625 4283453520
18.449682 6.1411724 2.9292116 4283848278
19.552347 7.0581698 2.9655828 4280887593
19.298073 6.8705735 2.9497256 4281019179
19.074886 6.7031078 2.9357197 4281282351
18.908857 6.5710363 2.925034 4281808695
18.767063 6.4543447 2.9161167 4282861383
18.657061 6.3571987 2.9079568 4283321934
18.572662 6.275784 2.902045 4283453520
18.509365 6.2071843 2.8970728 4283387727
18.354816 6.0858679 2.8857985 4283782485
19.374653 6.9166236 2.9181736 4280953386
19.17021 6.7601323 2.9050736 4281348144
18.994017 6.6217189 2.8939598 4281940281
18.843647 6.4996929 2.8847065 4282664004
18.713957 6.3907638 2.8766477 4283256141
18.625038 6.3065329 2.8707237 4283321934
18.575161 6.2455645 2.865845 4283256141
18.306326 6.0576367 2.8484278 4283716692
19.274944 6.8228593 2.8761444 4281282351
19.091379 6.6797404 2.8648796 4281940281
18.957224 6.5669985 2.8561542 4282861383
18.814613 6.45012 2.8476887 4283190348
18.739323 6.3735328 2.8418665 4283190348
18.679085 6.3062181 2.8373203 4283124555
18.269827 6.0363059 2.8114259 4283585106
19.256285 6.7780213 2.8395305 4282203453
19.112965 6.6593523 2.830555 4282992969
19.000414 6.5596814 2.8231225 4283124555
18.902151 6.4690819 2.8166444 4283058762
18.860838 6.4123268 2.8132267 4282992969
18.26914 6.035892 2.7785316 4283519313
19.279259 6.7580695 2.8064489 4283058762
19.193665 6.6737933 2.8005624 4282992969
19.049774 6.5558481 2.7920792 4282992969
18.992439 6.4893227 2.7882931 4282927176
18.302809 6.0555043 2.748534 4283519313
19.357622 6.7707548 2.7772157 4282927176
19.241787 6.6687856 2.770447 4282927176
19.163132 6.5892444 2.7658305 4282927176
18.360662 6.0893059 2.7213392 4283519313
19.491505 6.8157496 2.7522643 4282927176
19.3787 6.7155004 2.7459645 4282927176
18.451511 6.1423798 2.6965134 4283453520
19.819235 7.0439324 2.7378161 4282927176
19.829748 7.0149131 2.7390985 4282861383
19.646864 6.8726287 2.7288532 4282861383
18.579346 6.217062 2.6740413 4283453520
20.31979 7.3401923 2.7329009 4282795590
20.267736 7.2729011 2.7308609 4282729797
20.080534 7.1267519 2.7205861 4282795590
18.813494 6.3537564 2.6577263 4283387727
21.131273 7.8596096 2.7427316 4282664004
20.943604 7.7095313 2.7333155 4282664004
20.820541 7.5986104 2.7276218 4282729797
20.77656 7.5347004 2.7260866 4282795590
19.124865 6.5355425 2.6451411 4283321934
22.453037 8.7318916 2.7745922 4282598211
22.172144 8.5211172 2.761363 4282598211
21.941656 8.3419619 2.7505794 4282532418
21.729408 8.1749392 2.7404916 4282598211
21.513155 8.0067987 2.7299435 4282729797
21.317905 7.8521876 2.7199941 4282795590
19.528585 6.7712345 2.6363184 4283256141
22.819061 8.9082918 2.7558897 4282532418
22.565062 8.7132282 2.7445753 4282532418
22.52519 8.6464396 2.7447398 4282664004
22.179003 8.3993769 2.7276831 4282729797
21.973701 8.236886 2.7177248 4282861383
19.913025 6.9957967 2.6247654 4283256141
22.98526 8.8748322 2.7296116 4282795590
22.756687 8.6962948 2.7190273 4282861383
20.382698 7.2702012 2.6161952 4283321934
20.952236 7.6030178 2.6107366 4283321934
21.903826 8.1589212 2.6210818 4283321934
22.805935 8.6860886 2.6238813 4283256141
21.772663 -5.5875468 0.77131629 4282137660
22.487616 -5.9225321 0.70492679 4282006074
22.871601 -6.1246414 0.66858125 4281677109
21.256336 -5.4162078 0.7777459 4281808695
21.827719 -5.6921301 0.72239655 4281479730
22.517597 -6.0210462 0.65605652 4281413937
21.549757 -5.5773253 0.70872611 4281413937
22.283039 -5.9234948 0.63609976 4281348144
22.913998 -6.2311869 0.57361633 4281216558
21.81119 -5.7267179 0.6408844 4281084972
22.370775 -6.0029082 0.583543 4280953386
21.361567 -5.5391974 0.64612979 4280821800
21.958673 -5.8298354 0.58334076 4280756007
22.599993 -6.1428881 0.51615834 4280624421
21.627766 -5.6909356 0.57704329 4280492835
22.220604 -5.9824109 0.51301092 4280427042
22.83396 -6.2863436 0.44704193 4280361249
21.317511 -5.5606909 0.57039559 4280361249
21.880285 -5.8384676 0.50783157 4280229663
22.41254 -6.1066928 0.44870493 4280163870
21.525051 -5.6881294 0.5061816 4280098077
22.094851 -5.9713526 0.44140038 4280098077
22.614666 -6.2366381 0.38236785 4280032284
21.207117 -5.5535846 0.5023495 4280032284
21.749537 -5.824172 0.4390325 4279966491
22.28274 -6.0942216 0.3770383 4279966491
22.9135 -6.4097581 0.30396864 4279966491
21.443432 -5.6937346 0.43413305 4279900698
21.945484 -5.9494834 0.37423611 4279900698
22.560432 -6.257165 0.3011682 4279834905
21.212442 -5.5954261 0.42214689 4279900698
21.712418 -5.849596 0.36103866 4279834905
22.315386 -6.1513953 0.28760165 4279769112
22.969093 -6.4789386 0.20803684 4279637526
21.530491 -5.7717147 0.3429611 4279769112
22.122402 -6.0681839 0.26911214 4279703319
22.784828 -6.3989782 0.18659952 4279637526
21.418674 -5.7240324 0.31722516 4279769112
21.995869 -6.0137949 0.24348186 4279703319
22.66943 -6.3490863 0.15765126 4279637526
21.920109 -5.9814377 0.21213208 4279769112
22.580057 -6.3105555 0.1260426 4279637526
22.478966 -6.2669091 0.096479364 4279769112
