# .PCD v0.7 - Point Cloud Data file format
VERSION 0.7
FIELDS x y z rgb
SIZE 4 4 4 4
TYPE F F F U
COUNT 1 1 1 1
WIDTH 1147
HEIGHT 1
VIEWPOINT 0 0 0 1 0 0 0
POINTS 1147
DATA ascii
30.355558 -9.6123667 2.9212337 4294830895
30.753931 -9.8418198 2.951344 4294830895
30.281908 -9.5976648 2.9185843 4294830895
30.34844 -9.646945 2.9226501 4294830895
30.244917 -9.6031771 2.9155457 4294830895
30.745956 -9.8907757 2.9499586 4294830895
30.067415 -9.5312948 2.9032137 4294830895
30.345163 -9.6968393 2.9219825 4294830895
30.763769 -9.9405222 2.9508491 4294830895
30.670309 -9.90203 2.94577 4294830895
31.419033 -10.32975 2.9953327 4294830895
30.552835 -9.8634291 2.9372256 4294830895
30.918739 -10.079748 2.9619086 4294830895
31.801609 -10.627326 3.0213265 4294830895
31.682072 -10.588797 3.0138791 4294830895
29.8629 -9.5807619 2.8882046 4294830895
30.843044 -10.144495 2.9592631 4294830895
30.865297 -10.170445 2.9606969 4294830895
31.630789 -10.658757 3.0129251 4294830895
31.498676 -10.626035 3.001946 4294830895
30.688601 -10.177029 2.945935 4294830895
30.945408 -10.337107 2.9654005 4294830895
31.697077 -10.923843 3.0171988 4294830895
30.918446 -10.483138 2.9640832 4294830895
31.422672 -10.791687 2.9984314 4294830895
31.788515 -11.020074 3.0235155 4294830895
30.878569 -10.500093 2.9615011 4294830895
31.284254 -10.752108 2.9891558 4294830895
31.323116 -10.84409 2.9931223 4294830895
28.803505 -11.575535 2.8253112 4294830895
29.549963 -12.183004 2.878675 4294830895
31.011515 -8.9153404 2.9497952 4294830895
31.170027 -9.0169907 2.9599469 4294830895
31.788836 -9.3221235 3.0018797 4294830895
27.994089 -7.6076002 2.7445717 4294830895
21.788094 -4.6873283 2.3243771 4294830895
30.077271 -9.0692358 2.8889012 4294830895
29.359159 -8.7479868 2.8412292 4294830895
30.986298 -9.6036396 2.9510849 4294830895
31.413195 -9.9643717 2.9796872 4294830895
30.322817 -9.4009209 2.908644 4294830895
29.891531 -9.1855764 2.8771005 4294830895
29.706705 -9.1000891 2.8633101 4294830895
29.851767 -9.1896925 2.8721509 4294830895
30.276234 -9.5562 2.9044378 4294830895
30.495525 -9.6884155 2.9180422 4294830895
30.628479 -9.7735434 2.929424 4294830895
30.57386 -9.7700396 2.9258432 4294830895
30.429062 -9.7039309 2.9157722 4294830895
31.442877 -10.328879 2.9838138 4294830895
30.687275 -9.9245634 2.9344666 4294830895
30.9217 -10.067914 2.9488754 4294830895
31.955519 -10.655482 3.0178218 4294830895
30.994507 -10.230028 2.9541528 4294830895
30.673771 -10.168319 2.9339788 4294830895
30.630497 -10.156801 2.930711 4294830895
30.712557 -10.217023 2.9365277 4294830895
31.711639 -10.932307 3.0045223 4294830895
31.129498 -13.379381 2.9740951 4294830895
29.140766 -11.839079 2.8375781 4294830895
31.456848 -9.0567436 2.9645853 4294830895
30.646816 -8.6940517 2.9102385 4294830895
21.017704 -4.3119774 2.2672501 4294830895
22.903637 -5.2425661 2.3943467 4294830895
29.610315 -8.8048677 2.8457079 4294830895
31.025871 -9.542758 2.9403489 4294830895
31.621489 -9.8620272 2.9813013 4294830895
29.102589 -8.6150837 2.8128588 4294830895
31.983992 -10.236818 3.0040112 4294830895
30.205244 -9.3134871 2.8860502 4294830895
30.154598 -9.2995272 2.8825498 4294830895
29.792181 -9.1202526 2.8599055 4294830895
30.093258 -9.2921877 2.8802042 4294830895
30.012444 -9.2618027 2.8756716 4294830895
29.695114 -9.1055822 2.8544059 4294830895
31.73033 -10.20268 2.9895473 4294830895
31.141193 -9.9023705 2.950182 4294830895
30.854929 -9.8033361 2.9295089 4294830895
30.320477 -9.5287342 2.8942506 4294830895
29.995859 -9.3663769 2.8728127 4294830895
31.004087 -9.9240408 2.9405143 4294830895
30.983894 -9.940196 2.9389639 4294830895
30.244671 -9.5519218 2.889266 4294830895
30.545511 -9.7284527 2.910176 4294830895
31.444082 -10.231821 2.9696031 4294830895
30.503162 -9.7315187 2.9072773 4294830895
30.556974 -9.8526106 2.9116364 4294830895
30.804739 -10.002972 2.9287732 4294830895
30.824514 -10.027367 2.9295413 4294830895
31.35903 -10.338121 2.9642754 4294830895
30.945534 -10.121559 2.9373567 4294830895
30.955961 -10.140623 2.9401796 4294830895
31.191774 -10.285911 2.9563208 4294830895
31.788298 -10.633872 2.9947178 4294830895
30.896837 -10.148214 2.933841 4294830895
31.071623 -10.259968 2.9446359 4294830895
30.649866 -10.035976 2.9181879 4294830895
30.706264 -10.173627 2.9233279 4294830895
30.814247 -10.24865 2.9301555 4294830895
31.397045 -10.595828 2.9679534 4294830895
28.079613 -7.5102839 2.7293532 4294830895
30.999413 -8.8826523 2.9217112 4294830895
29.465057 -8.1909676 2.8201807 4294830895
28.881254 -7.9514637 2.781883 4294830895
31.713345 -9.3143253 2.9680109 4294830895
19.92535 -3.7588613 2.1935906 4294830895
21.671404 -4.6304393 2.3071802 4294830895
29.145306 -8.5434713 2.8026848 4294830895
28.460564 -8.2055101 2.7575221 4294830895
29.297487 -8.6448202 2.8127534 4294830895
31.69965 -9.8879204 2.9725513 4294830895
28.726116 -8.3752117 2.7746441 4294830895
29.381248 -8.7236643 2.8178496 4294830895
29.547194 -8.821167 2.8289104 4294830895
29.648485 -8.8855515 2.8359845 4294830895
29.372349 -8.7548113 2.8182437 4294830895
31.276194 -9.7538338 2.9436512 4294830895
31.148394 -9.7563391 2.9326806 4294830895
31.32122 -9.860568 2.9444339 4294830895
31.388109 -9.9095478 2.9488044 4294830895
29.475849 -8.9168911 2.8254573 4294830895
29.132471 -8.7478952 2.8031716 4294830895
29.726416 -9.0733166 2.8421984 4294830895
29.937946 -9.1975594 2.8560104 4294830895
29.96714 -9.2256098 2.8574562 4294830895
29.81204 -9.1555729 2.84881 4294830895
29.748993 -9.134511 2.8440292 4294830895
31.151121 -9.9079561 2.9351211 4294830895
30.946333 -9.8389072 2.922945 4294830895
30.420599 -9.5697622 2.8874996 4294830895
30.742018 -9.7558346 2.9092484 4294830895
31.260715 -10.049133 2.9429176 4294830895
30.269457 -9.5270357 2.8770263 4294830895
29.83539 -9.316885 2.8507915 4294830895
29.70529 -9.2585897 2.8421333 4294830895
30.222086 -9.5522566 2.8765504 4294830895
30.206455 -9.5565367 2.8753607 4294830895
30.299093 -9.6199436 2.881391 4294830895
31.229515 -10.142201 2.942374 4294830895
31.754787 -10.472498 2.9776323 4294830895
30.815311 -9.9821758 2.9157577 4294830895
30.559633 -9.8540659 2.8990672 4294830895
30.351431 -9.7517862 2.8853872 4294830895
30.09907 -9.6245661 2.868995 4294830895
30.806025 -10.030416 2.9155183 4294830895
30.739698 -10.006963 2.9097354 4294830895
30.953394 -10.139388 2.9250033 4294830895
31.069981 -10.218104 2.9322581 4294830895
30.254459 -8.509944 2.859612 4294830895
27.26165 -7.1295733 2.6651361 4294830895
26.184052 -6.6803036 2.5954771 4294830895
30.211218 -8.6164198 2.8554347 4294830895
28.664022 -7.9483638 2.7601762 4294830895
20.940874 -4.2781935 2.2545445 4294830895
21.191036 -4.404449 2.2707338 4294830895
28.732607 -8.3331032 2.7640872 4294830895
28.374199 -8.1614552 2.7404974 4294830895
29.597343 -8.7982521 2.820297 4294830895
29.077492 -8.5438929 2.7867765 4294830895
29.282789 -8.6612959 2.7982588 4294830895
29.194731 -8.6276484 2.7939396 4294830895
29.192465 -8.6382647 2.7938259 4294830895
28.997145 -8.5490484 2.7819424 4294830895
29.597948 -8.8716574 2.8202538 4294830895
29.085453 -8.6182032 2.7865062 4294830895
29.231773 -8.7058554 2.7962451 4294830895
29.408932 -8.809804 2.8082354 4294830895
29.849323 -9.0513887 2.8369055 4294830895
29.742334 -9.0078745 2.8303733 4294830895
29.930023 -9.1183996 2.8426416 4294830895
30.264017 -9.3060398 2.8640125 4294830895
30.1185 -9.2423439 2.8552768 4294830895
29.359028 -8.8556089 2.804426 4294830895
30.581451 -9.5106115 2.8932085 4294830895
31.958565 -10.266076 2.9789429 4294830895
30.120203 -9.3317919 2.8574638 4294830895
30.239935 -9.4212446 2.8640726 4294830895
29.821989 -9.2106447 2.8357069 4294830895
30.68512 -9.6853275 2.8936377 4294830895
30.869854 -9.7978439 2.9046683 4294830895
31.232281 -10.006166 2.9281633 4294830895
30.551664 -9.6532297 2.8841608 4294830895
30.467388 -9.6208162 2.8789871 4294830895
30.754311 -9.78895 2.89783 4294830895
31.471155 -10.190427 2.9452815 4294830895
29.979807 -9.3952503 2.8479636 4294830895
29.934185 -9.3828535 2.8463452 4294830895
31.449799 -10.220898 2.9428558 4294830895
30.734901 -9.844696 2.8981962 4294830895
30.412413 -9.681694 2.877722 4294830895
31.591125 -10.424705 2.9535306 4294830895
30.717384 -9.9546452 2.8960927 4294830895
31.174276 -10.221519 2.9262712 4294830895
31.650097 -10.513993 2.9574842 4294830895
32.003895 -10.725529 2.9812951 4294830895
30.390846 -11.961567 2.8831651 4294830895
27.732204 -7.3680611 2.6864209 4294830895
29.781355 -8.337822 2.8176546 4294830895
30.167318 -8.5313196 2.8420668 4294830895
25.161909 -6.1985221 2.5212979 4294830895
25.924696 -6.5664029 2.5702586 4294830895
28.977495 -8.0866585 2.7704086 4294830895
28.564667 -7.900063 2.7443087 4294830895
31.306559 -9.2310514 2.914902 4294830895
30.554068 -8.9731522 2.8699028 4294830895
21.40015 -4.5066099 2.2807808 4294830895
21.568186 -4.593298 2.2913589 4294830895
30.648256 -9.2281685 2.8864596 4294830895
28.85359 -8.3946714 2.7611232 4294830895
28.352932 -8.1504879 2.7287958 4294830895
28.68749 -8.332551 2.7508752 4294830895
29.27494 -8.6451359 2.7875743 4294830895
29.529692 -8.7879019 2.803479 4294830895
29.36713 -8.7164021 2.7928038 4294830895
29.468838 -8.7926617 2.8007162 4294830895
28.992239 -8.5581751 2.7695999 4294830895
29.130894 -8.641573 2.7790985 4294830895
29.973297 -9.0908194 2.8332653 4294830895
30.559055 -9.4082642 2.8700807 4294830895
29.519617 -8.879509 2.8032832 4294830895
30.400175 -9.3514519 2.8603191 4294830895
29.698904 -8.9974356 2.815589 4294830895
29.963322 -9.1484146 2.8318343 4294830895
30.092054 -9.2285929 2.8397999 4294830895
29.338467 -8.8445959 2.7927682 4294830895
29.778799 -9.113061 2.8234496 4294830895
31.496105 -10.036256 2.9280088 4294830895
30.654514 -9.6163282 2.8766327 4294830895
30.480768 -9.5368052 2.8667233 4294830895
31.126646 -9.8945932 2.9088559 4294830895
30.035507 -9.3247509 2.8379653 4294830895
30.1537 -9.4007921 2.8445406 4294830895
29.943541 -9.3131104 2.8321099 4294830895
30.024143 -9.369031 2.8374658 4294830895
30.574173 -9.6784201 2.8732715 4294830895
31.711788 -10.320781 2.9468119 4294830895
30.796757 -9.8385181 2.8881235 4294830895
30.355009 -9.61166 2.8606281 4294830895
30.093184 -11.722789 2.8484774 4294830895
29.734625 -11.478391 2.8281357 4294830895
22.606308 -4.9145932 2.3532941 4294830895
30.295135 -8.5023594 2.8374298 4294830895
29.359688 -8.1175842 2.7766514 4294830895
27.448132 -7.2357955 2.6567833 4294830895
23.279709 -5.2998447 2.3941298 4294830895
24.182287 -5.7302461 2.4509223 4294830895
24.202824 -5.7467136 2.4524486 4294830895
25.427038 -6.3313332 2.5302539 4294830895
27.248398 -7.2008729 2.6454887 4294830895
30.477369 -8.7413454 2.8488963 4294830895
28.463448 -7.9846482 2.7274141 4294830895
24.970675 -6.2756438 2.5087726 4294830895
29.214298 -8.5546055 2.7745304 4294830895
28.350157 -8.1379118 2.7189729 4294830895
28.229975 -8.0875854 2.7108908 4294830895
28.34046 -8.1549673 2.717937 4294830895
28.73477 -8.3681145 2.7424815 4294830895
28.959412 -8.4950924 2.7545853 4294830895
31.756964 -9.9742603 2.9347634 4294830895
29.085354 -8.6063433 2.7640057 4294830895
29.600325 -8.8848839 2.7975271 4294830895
28.994205 -8.5823622 2.7583556 4294830895
29.774601 -8.9998884 2.8089871 4294830895
30.443916 -9.3612051 2.850975 4294830895
29.385067 -8.833231 2.7834589 4294830895
29.290159 -8.7954369 2.7776384 4294830895
29.67606 -9.0100136 2.8018067 4294830895
29.316193 -8.8329048 2.7792823 4294830895
29.439707 -8.9095917 2.7900665 4294830895
29.999695 -9.2174397 2.8246694 4294830895
29.744192 -9.0949183 2.8077865 4294830895
31.077011 -9.8136301 2.8923559 4294830895
29.956224 -9.2446394 2.8216605 4294830895
29.558968 -9.045558 2.7956307 4294830895
30.033972 -9.3239927 2.82477 4294830895
30.700542 -9.6937218 2.8673143 4294830895
31.304514 -10.044866 2.9070184 4294830895
29.783228 -9.2392702 2.8095784 4294830895
30.604742 -9.694932 2.8621948 4294830895
30.274443 -11.852428 2.8506689 4294830895
29.887619 -11.588122 2.8241763 4294830895
29.675058 -8.1677532 2.786356 4294830895
26.507603 -6.8051987 2.5880907 4294830895
26.004675 -6.5781164 2.5574737 4294830895
24.809532 -6.0245323 2.4842243 4294830895
24.856863 -6.0540462 2.4879909 4294830895
25.545399 -6.3866572 2.5307374 4294830895
25.968287 -6.5954237 2.5554078 4294830895
25.925533 -6.5839472 2.5521367 4294830895
25.129168 -6.2524943 2.5065858 4294830895
28.737576 -8.3469229 2.7307932 4294830895
30.027103 -9.0182266 2.8094692 4294830895
30.069958 -9.052536 2.8144553 4294830895
30.954473 -9.5192299 2.871351 4294830895
29.028082 -8.5417871 2.749028 4294830895
30.077198 -9.1067209 2.8159516 4294830895
28.966177 -8.5445404 2.7462029 4294830895
29.653563 -8.912447 2.7891467 4294830895
28.999937 -8.5852289 2.7482235 4294830895
29.145325 -8.6725187 2.7569654 4294830895
29.873379 -9.0637589 2.8027868 4294830895
30.066866 -9.177249 2.8149853 4294830895
29.388624 -8.8350172 2.7725616 4294830895
29.235287 -8.7666922 2.7622426 4294830895
29.467014 -8.9002485 2.7763851 4294830895
29.307808 -8.8284054 2.7678974 4294830895
31.03327 -9.7497835 2.875787 4294830895
30.587187 -9.5410528 2.846643 4294830895
30.44124 -9.5156727 2.8393998 4294830895
31.620827 -12.137583 2.9184992 4294830895
25.740482 -6.363307 2.5325239 4294830895
25.078136 -6.0663638 2.4926507 4294830895
31.952753 -9.2395878 2.9135931 4294830895
26.841801 -6.9047518 2.6003358 4294830895
30.007265 -8.4173527 2.795969 4294830895
25.026573 -6.1032848 2.4900281 4294830895
25.167646 -6.1771441 2.4983623 4294830895
24.023354 -5.6480522 2.4286551 4294830895
24.294415 -5.7823973 2.4446859 4294830895
24.886889 -6.0684714 2.4810741 4294830895
25.305162 -6.2734647 2.506808 4294830895
25.95266 -6.5877275 2.5464396 4294830895
26.185719 -6.7066789 2.5612538 4294830895
24.328094 -5.8333449 2.4473956 4294830895
28.247658 -7.7480803 2.6918292 4294830895
26.119608 -6.7366233 2.5588558 4294830895
31.343069 -9.7047262 2.8838782 4294830895
28.995722 -8.5480947 2.7379794 4294830895
28.801832 -8.459424 2.7255719 4294830895
29.457048 -8.8106756 2.7639718 4294830895
29.013615 -8.5923786 2.7371767 4294830895
28.787567 -8.4863567 2.7235105 4294830895
29.535807 -8.8877764 2.769917 4294830895
29.853817 -9.0659761 2.7895768 4294830895
31.410835 -9.8931437 2.8846712 4294830895
30.109236 -9.2247705 2.8047945 4294830895
31.341724 -9.8846655 2.8811042 4294830895
31.159571 -9.8028841 2.8675535 4294830895
31.717813 -12.174024 2.9118276 4294830895
30.783171 -11.563635 2.8546197 4294830895
30.958206 -11.694185 2.8629384 4294830895
27.358046 -7.103982 2.6223783 4294830895
23.881268 -5.5159483 2.4127636 4294830895
23.031986 -5.1312857 2.3615637 4294830895
23.841629 -5.5105233 2.4104214 4294830895
25.169521 -6.1312108 2.4899597 4294830895
26.640862 -6.8388896 2.5793419 4294830895
25.658897 -6.3906031 2.5192063 4294830895
24.479219 -5.8475256 2.4489603 4294830895
24.040987 -5.6489916 2.4243867 4294830895
23.89245 -5.586524 2.4140327 4294830895
23.321302 -5.3245292 2.3801718 4294830895
24.524147 -5.8972402 2.4526122 4294830895
25.266956 -6.2551513 2.4972329 4294830895
25.95332 -6.5878634 2.5381415 4294830895
28.092064 -7.6105704 2.6647403 4294830895
31.546471 -9.3304815 2.8811305 4294830895
24.706755 -6.0574512 2.4648879 4294830895
29.908342 -8.9946585 2.7798011 4294830895
30.339764 -11.254486 2.8136404 4294830895
30.600637 -11.441715 2.829735 4294830895
22.680683 -4.9536319 2.3346183 4294830895
24.218859 -5.670712 2.4261556 4294830895
22.937597 -5.0873756 2.3505266 4294830895
23.848852 -5.5133834 2.4047837 4294830895
29.574093 -8.1668291 2.7449369 4294830895
22.361439 -4.8375955 2.3153327 4294830895
23.709709 -5.4688253 2.3947983 4294830895
27.900507 -7.4247937 2.644599 4294830895
27.678236 -7.3318009 2.6307516 4294830895
25.108429 -6.1411018 2.480032 4294830895
22.83531 -5.0847559 2.3452652 4294830895
23.084709 -5.2074327 2.3598101 4294830895
23.723913 -5.5138092 2.3975465 4294830895
24.216448 -5.7522335 2.427108 4294830895
24.734076 -6.0033712 2.4585865 4294830895
26.379074 -6.789155 2.5546491 4294830895
28.526724 -7.8161893 2.6811955 4294830895
26.902531 -7.0924211 2.5941708 4294830895
27.279491 -7.3738999 2.6080735 4294830895
31.509413 -11.487947 2.8689675 4294830895
31.725391 -11.638131 2.8831549 4294830895
30.851406 -11.595947 2.8318472 4294830895
20.98748 -4.1780853 2.2308052 4294830895
21.59963 -4.4624729 2.2664821 4294830895
23.158741 -5.1829853 2.358057 4294830895
24.34812 -5.7365723 2.4271309 4294830895
27.01709 -6.9747152 2.583807 4294830895
21.872568 -4.6107144 2.2824652 4294830895
22.577923 -4.9428916 2.3235197 4294830895
23.587503 -5.4179921 2.3821976 4294830895
25.51832 -6.3408084 2.4956129 4294830895
23.338167 -5.3262811 2.368556 4294830895
25.668575 -6.4277954 2.504951 4294830895
24.958502 -6.1017308 2.4632716 4294830895
31.566786 -9.228611 2.8483398 4294830895
29.253145 -8.3143387 2.7086642 4294830895
31.089735 -10.978544 2.8295188 4294830895
31.12994 -11.030482 2.8319654 4294830895
30.902325 -10.904149 2.8181262 4294830895
30.800879 -11.028531 2.8141215 4294830895
31.21312 -11.301441 2.8377728 4294830895
31.337399 -11.393528 2.8460763 4294830895
31.539551 -11.535068 2.8576019 4294830895
31.266092 -11.55547 2.8424256 4294830895
31.33876 -11.61621 2.846746 4294830895
31.605474 -11.802648 2.8621941 4294830895
31.043034 -11.465888 2.8295252 4294830895
30.354496 -11.032011 2.7874115 4294830895
31.516958 -12.040127 2.8579051 4294830895
18.749475 -3.1503506 2.0993845 4294830895
20.473637 -3.9391925 2.1983285 4294830895
23.804153 -5.466217 2.3895683 4294830895
21.7484 -4.5303154 2.2705569 4294830895
21.176041 -4.2716961 2.2387214 4294830895
22.768215 -5.0084782 2.3310552 4294830895
31.918907 -9.2361727 2.8552682 4294830895
23.194254 -5.2169294 2.3536999 4294830895
25.694839 -6.3814445 2.4970911 4294830895
24.751957 -5.9520531 2.4430685 4294830895
23.357912 -5.3109317 2.3634121 4294830895
25.15871 -6.1565838 2.4669206 4294830895
26.347862 -6.7199059 2.5359199 4294830895
27.643564 -7.3356066 2.609164 4294830895
29.440033 -8.1887121 2.7105458 4294830895
28.852381 -7.9242725 2.6797993 4294830895
26.165583 -6.6702442 2.5246739 4294830895
31.105629 -9.024148 2.8110397 4294830895
23.017731 -5.2452326 2.3483782 4294830895
31.21488 -10.862767 2.8232923 4294830895
31.58795 -11.10022 2.8447378 4294830895
31.480219 -11.245649 2.8385892 4294830895
31.565496 -11.495176 2.8447583 4294830895
30.813173 -11.036306 2.8017783 4294830895
31.080111 -11.217731 2.8171506 4294830895
30.864679 -11.095492 2.8050361 4294830895
31.08942 -11.250831 2.8181336 4294830895
31.170721 -11.315881 2.822706 4294830895
31.43531 -11.497194 2.8380001 4294830895
31.593834 -11.625836 2.8473241 4294830895
17.965271 -2.7917943 2.0535171 4294830895
18.299931 -2.94519 2.0724244 4294830895
19.579727 -3.5307467 2.1445975 4294830895
20.318724 -3.8744483 2.1866894 4294830895
21.54423 -4.4406962 2.2556965 4294830895
20.2202 -3.8354671 2.1812835 4294830895
23.09153 -5.1633515 2.3421805 4294830895
21.786377 -4.5658131 2.2688396 4294830895
21.833817 -4.5924048 2.2711949 4294830895
23.020542 -5.1480103 2.3390934 4294830895
24.866392 -6.012547 2.443511 4294830895
30.400366 -8.6000223 2.7561214 4294830895
28.074535 -7.5263939 2.6255534 4294830895
25.764025 -6.4555368 2.4946215 4294830895
27.64344 -7.3456984 2.5987425 4294830895
26.945467 -7.027854 2.5609303 4294830895
28.678455 -7.8536301 2.6605904 4294830895
30.503944 -8.7265711 2.7633548 4294830895
27.211535 -7.1824737 2.5771995 4294830895
29.32889 -8.2197399 2.6950262 4294830895
22.274811 -4.888473 2.297425 4294830895
26.754677 -7.0983496 2.5539174 4294830895
30.751671 -10.412629 2.7839308 4294830895
30.620493 -10.348932 2.7755575 4294830895
31.437181 -10.98194 2.822382 4294830895
31.16119 -10.830674 2.8065765 4294830895
31.744192 -11.193937 2.8410082 4294830895
31.190704 -11.054163 2.8088679 4294830895
30.645187 -10.732858 2.7779708 4294830895
31.907883 -11.710132 2.8504291 4294830895
31.353157 -11.375812 2.8195665 4294830895
18.34989 -2.9677594 2.0741894 4294830895
20.529375 -3.9638917 2.1946113 4294830895
19.732929 -3.6029944 2.1504254 4294830895
20.364338 -3.8985462 2.1864784 4294830895
20.186043 -3.8197212 2.1764355 4294830895
22.036081 -4.6758552 2.2765114 4294830895
21.69327 -4.5226984 2.2598488 4294830895
23.01965 -5.1417103 2.3330178 4294830895
23.664675 -5.4469752 2.368598 4294830895
22.677715 -4.9942994 2.314702 4294830895
26.577885 -6.8179603 2.532727 4294830895
25.208797 -6.195622 2.4556117 4294830895
25.518738 -6.3489509 2.4726956 4294830895
26.10771 -6.6340375 2.5052369 4294830895
27.131035 -7.1248546 2.561933 4294830895
29.70952 -8.3516684 2.7050359 4294830895
27.14373 -7.1504531 2.5629232 4294830895
21.750677 -4.6318998 2.2646763 4294830895
21.049723 -4.2995706 2.2251291 4294830895
27.400862 -7.3926015 2.582238 4294830895
28.319735 -7.8598723 2.630919 4294830895
31.837664 -10.862692 2.829185 4294830895
31.37315 -10.776946 2.8046474 4294830895
30.764954 -10.433791 2.770539 4294830895
31.232803 -10.722213 2.796912 4294830895
30.806604 -10.605098 2.7728333 4294830895
31.376493 -10.959621 2.8051796 4294830895
30.923918 -10.70214 2.7799366 4294830895
30.983191 -10.751204 2.783206 4294830895
31.452276 -11.046913 2.8095665 4294830895
31.134424 -10.883034 2.7920361 4294830895
29.448059 -9.8773308 2.6981828 4294830895
31.243448 -10.990149 2.7981901 4294830895
30.932577 -10.815117 2.7791591 4294830895
17.975489 -2.796448 2.0530918 4294830895
18.473631 -3.0243165 2.0802989 4294830895
18.725756 -3.1408224 2.0940406 4294830895
19.534245 -3.512352 2.1380162 4294830895
20.387962 -3.9060695 2.1841195 4294830895
20.150927 -3.8005066 2.1713917 4294830895
21.343882 -4.352644 2.235909 4294830895
21.222191 -4.3008628 2.2301378 4294830895
21.332886 -4.3561177 2.2361696 4294830895
23.094036 -5.1879745 2.3319309 4294830895
23.984098 -5.6088448 2.3810718 4294830895
24.637358 -5.9206929 2.4157224 4294830895
25.220354 -6.2010846 2.448941 4294830895
26.059059 -6.6024485 2.4944537 4294830895
26.049608 -6.6067624 2.4938815 4294830895
28.246893 -7.6504765 2.6136405 4294830895
31.435984 -9.1665812 2.7878845 4294830895
28.822733 -7.9446282 2.6475484 4294830895
23.683743 -5.5592914 2.3646288 4294830895
21.485167 -4.5089021 2.2461541 4294830895
29.360342 -8.3421516 2.6824398 4294830895
27.999128 -7.7037134 2.5957925 4294830895
31.231932 -10.198812 2.7798777 4294830895
31.366766 -10.287039 2.7875507 4294830895
30.90103 -10.177692 2.7643456 4294830895
30.670683 -10.061252 2.7507696 4294830895
30.665876 -10.177469 2.7502639 4294830895
30.890701 -10.319627 2.7642906 4294830895
30.887505 -10.331222 2.7640123 4294830895
31.036928 -10.471358 2.772316 4294830895
31.559029 -10.787404 2.8003366 4294830895
31.093523 -10.531345 2.7755363 4294830895
30.91312 -10.440111 2.7656169 4294830895
31.447073 -10.764451 2.7949789 4294830895
31.509308 -10.814716 2.7983642 4294830895
31.792038 -10.993909 2.8138142 4294830895
30.348175 -10.163353 2.7345316 4294830895
30.555063 -10.297518 2.7456777 4294830895
30.629272 -10.35419 2.7503424 4294830895
30.889982 -10.520674 2.7654116 4294830895
31.858473 -11.233858 2.8173578 4294830895
31.406977 -10.991855 2.7934403 4294830895
19.246946 -3.3770452 2.1208286 4294830895
20.35327 -3.8841734 2.179898 4294830895
19.737415 -3.6055105 2.1468296 4294830895
20.537849 -3.9750557 2.1896434 4294830895
20.760382 -4.0804839 2.2009747 4294830895
21.541517 -4.4439077 2.2434173 4294830895
21.982315 -4.6514125 2.2661819 4294830895
22.201696 -4.7578454 2.278667 4294830895
25.596029 -6.3354616 2.4608502 4294830895
30.500193 -8.6205778 2.723947 4294830895
24.010979 -5.6147199 2.3763068 4294830895
27.545944 -7.269588 2.5670459 4294830895
24.225883 -5.7286468 2.3877847 4294830895
25.927805 -6.5323458 2.4790936 4294830895
28.113405 -7.5661888 2.5960004 4294830895
22.021051 -4.7617121 2.2698481 4294830895
21.94738 -4.7311277 2.2653646 4294830895
30.365557 -9.4756813 2.7197471 4294830895
30.895535 -9.7715635 2.7489753 4294830895
31.249657 -10.084636 2.768261 4294830895
30.918764 -10.026203 2.7489181 4294830895
31.381268 -10.295117 2.7767773 4294830895
30.713842 -10.059128 2.7411869 4294830895
30.657135 -10.040468 2.7381158 4294830895
30.846125 -10.160234 2.7477198 4294830895
30.922697 -10.216882 2.7532773 4294830895
31.163273 -10.448624 2.7649355 4294830895
30.705835 -10.200401 2.7398632 4294830895
30.885784 -10.31686 2.7494693 4294830895
30.574867 -10.15167 2.7336948 4294830895
31.408108 -10.644302 2.7786744 4294830895
31.391947 -10.648917 2.777684 4294830895
31.345158 -10.635815 2.7747667 4294830895
31.100574 -10.508224 2.7614493 4294830895
30.975723 -10.449533 2.7559364 4294830895
30.866926 -10.399911 2.7500229 4294830895
30.979818 -10.478942 2.7562227 4294830895
31.617126 -10.920061 2.7910113 4294830895
31.625895 -11.123186 2.7913702 4294830895
19.619942 -3.547508 2.1385419 4294830895
21.580832 -4.4451137 2.2415609 4294830895
22.654438 -4.9401841 2.2976046 4294830895
20.572964 -3.9913599 2.1882384 4294830895
22.677231 -4.9610381 2.2981153 4294830895
21.557192 -4.4511576 2.2397182 4294830895
23.175896 -5.2025938 2.3256969 4294830895
25.557968 -6.3096852 2.4506485 4294830895
27.906176 -7.4055538 2.5733707 4294830895
29.820631 -8.3054428 2.6761868 4294830895
24.620083 -5.8985453 2.404067 4294830895
24.605934 -5.8991885 2.4024508 4294830895
26.488562 -6.7860956 2.5021517 4294830895
28.710258 -7.8349447 2.6168361 4294830895
31.914217 -9.349309 2.7860937 4294830895
28.261044 -7.6463408 2.5927651 4294830895
28.384762 -7.7154589 2.5990345 4294830895
30.418798 -8.699028 2.7035074 4294830895
24.742599 -6.0598679 2.4080119 4294830895
20.77408 -4.1634908 2.1986377 4294830895
20.904972 -4.2300568 2.2055266 4294830895
25.138145 -6.3119931 2.4269121 4294830895
31.134199 -9.6803675 2.7473705 4294830895
30.779678 -9.5498543 2.7281752 4294830895
31.615145 -10.000344 2.7724516 4294830895
29.537148 -8.9372711 2.6628258 4294830895
30.499083 -9.455554 2.7148614 4294830895
30.149672 -9.3734264 2.6966209 4294830895
30.596004 -9.6248646 2.7201242 4294830895
31.074974 -9.8946543 2.7454085 4294830895
30.811392 -9.8335419 2.7313492 4294830895
29.913631 -9.3597794 2.6840563 4294830895
29.650267 -9.2291059 2.6699677 4294830895
30.257393 -9.5719147 2.7011499 4294830895
30.662512 -9.8718243 2.7250051 4294830895
30.200468 -9.6303024 2.7001216 4294830895
30.601645 -9.8646212 2.7212772 4294830895
30.567589 -9.858923 2.7190309 4294830895
30.77911 -9.9892645 2.7300644 4294830895
30.197266 -9.6795702 2.699475 4294830895
30.645277 -9.9414892 2.723434 4294830895
31.025482 -10.166501 2.7438798 4294830895
29.937868 -9.573103 2.6865816 4294830895
31.975748 -10.72486 2.7944202 4294830895
29.49028 -9.3474779 2.6633775 4294830895
30.487963 -9.9192238 2.7161214 4294830895
30.509956 -9.9446297 2.7176514 4294830895
30.313971 -9.8473778 2.7078698 4294830895
30.976831 -10.234023 2.7433593 4294830895
31.636433 -10.719147 2.7765164 4294830895
31.281296 -11.082319 2.7605209 4294830895
31.980629 -11.553258 2.8005917 4294830895
21.784412 -4.5475545 2.2484858 4294830895
21.147005 -4.2588663 2.2149534 4294830895
21.510101 -4.4297042 2.2331786 4294830895
23.336071 -5.2763729 2.327383 4294830895
23.889145 -5.5384169 2.3565731 4294830895
26.335514 -6.6786928 2.4837832 4294830895
27.460768 -7.2102184 2.5424495 4294830895
24.5373 -5.8602443 2.3918679 4294830895
24.967581 -6.0679569 2.4135149 4294830895
26.554531 -6.8171625 2.4963703 4294830895
27.983395 -7.537477 2.5695512 4294830895
29.528044 -8.2783337 2.6476657 4294830895
21.89049 -4.6992216 2.2538347 4294830895
25.95035 -6.7076015 2.4658878 4294830895
29.583036 -8.8519411 2.653213 4294830895
29.547108 -8.8455343 2.6517725 4294830895
29.456667 -8.810792 2.6473916 4294830895
29.707008 -8.9528561 2.660306 4294830895
29.850624 -9.0399485 2.669776 4294830895
31.8265 -10.096696 2.7700655 4294830895
29.239954 -8.781292 2.6365886 4294830895
29.342594 -8.8471279 2.6418169 4294830895
29.689926 -9.0421362 2.6595354 4294830895
30.103708 -9.3235979 2.6810045 4294830895
29.738832 -9.1418457 2.662991 4294830895
29.922264 -9.2520924 2.6724389 4294830895
30.907515 -9.7915764 2.7240725 4294830895
29.6523 -9.1324415 2.6589725 4294830895
29.170389 -8.8859835 2.6339145 4294830895
31.413343 -10.103912 2.7497315 4294830895
31.518204 -10.188382 2.7553785 4294830895
29.901375 -9.3282623 2.6716878 4294830895
29.532122 -9.140728 2.6522079 4294830895
29.814142 -9.3058605 2.6665938 4294830895
29.881956 -9.3551111 2.6701179 4294830895
30.526382 -9.7184839 2.7037857 4294830895
31.808281 -10.502465 2.7718115 4294830895
31.636559 -10.436243 2.7621474 4294830895
23.178883 -5.1764598 2.3147101 4294830895
22.12253 -4.7027931 2.2607532 4294830895
21.686831 -4.5075212 2.2390707 4294830895
22.4307 -4.8541565 2.2763186 4294830895
23.409916 -5.3111115 2.3260455 4294830895
24.305687 -5.7314715 2.3717272 4294830895
30.328663 -8.5424023 2.6789722 4294830895
25.461864 -6.2906518 2.4314148 4294830895
26.86269 -6.9520235 2.5031333 4294830895
27.629112 -7.3701124 2.5397065 4294830895
28.261513 -7.6794872 2.5718291 4294830895
30.895908 -8.9387817 2.7050025 4294830895
29.242908 -8.6763802 2.6245642 4294830895
29.024647 -8.5752773 2.6135354 4294830895
29.313936 -8.7368841 2.6283958 4294830895
29.24268 -8.7117844 2.6249139 4294830895
29.773825 -9.0000057 2.6519229 4294830895
29.0436 -8.6316671 2.6147516 4294830895
29.153841 -8.7008982 2.6205566 4294830895
29.759167 -9.0294151 2.6518381 4294830895
29.121323 -8.707366 2.6192369 4294830895
29.402529 -8.8667603 2.6333263 4294830895
29.639032 -9.0031881 2.64533 4294830895
29.590021 -8.9895992 2.6434352 4294830895
30.799461 -9.6937876 2.704035 4294830895
30.2479 -9.4132271 2.6768649 4294830895
29.784874 -9.1788168 2.6530955 4294830895
30.101202 -9.373003 2.6685128 4294830895
29.964727 -9.3124275 2.6619351 4294830895
31.429152 -10.140409 2.737191 4294830895
31.802309 -10.356114 2.7562435 4294830895
29.553862 -9.1526785 2.6443875 4294830895
29.28698 -9.0200071 2.6309471 4294830895
31.170029 -10.068813 2.7189031 4294830895
30.444717 -10.220049 2.6872902 4294830895
24.505163 -5.783155 2.3751414 4294830895
24.973526 -6.0042539 2.3987446 4294830895
24.787123 -5.9255595 2.3890815 4294830895
23.717749 -5.4412766 2.3358543 4294830895
23.827824 -5.4982648 2.341485 4294830895
24.288275 -5.7171235 2.364444 4294830895
25.567762 -6.3156548 2.4282532 4294830895
28.178862 -7.5332122 2.5575199 4294830895
28.685442 -7.7791452 2.5828257 4294830895
26.096014 -6.5860395 2.4550109 4294830895
27.500402 -7.2498674 2.5260067 4294830895
30.517157 -8.695384 2.6767051 4294830895
28.392189 -7.7305741 2.5681059 4294830895
29.599783 -8.3130922 2.6296351 4294830895
28.826088 -8.050354 2.5952239 4294830895
30.642557 -8.9381456 2.6831238 4294830895
30.303764 -9.2245388 2.6679537 4294830895
29.46817 -8.8048925 2.6245446 4294830895
29.277073 -8.7178745 2.6150377 4294830895
29.390327 -8.7885656 2.6206818 4294830895
29.347719 -8.7783489 2.6182623 4294830895
29.29232 -8.7613916 2.615325 4294830895
29.729351 -9.0015488 2.6373653 4294830895
29.388922 -8.8357859 2.6214163 4294830895
29.16275 -8.7292213 2.6106091 4294830895
29.325527 -8.826478 2.6189163 4294830895
29.726225 -9.0614138 2.6370525 4294830895
30.502075 -9.5617695 2.6759822 4294830895
31.534067 -10.520415 2.7319181 4294830895
30.5585 -10.286837 2.6852376 4294830895
26.379938 -6.6378326 2.4579694 4294830895
26.959618 -6.9104009 2.4856598 4294830895
25.602394 -6.3082361 2.4219747 4294830895
25.058504 -6.0654464 2.3951173 4294830895
25.271061 -6.1710892 2.4055963 4294830895
25.60441 -6.3327298 2.421473 4294830895
26.406223 -6.7123632 2.4605808 4294830895
31.064646 -8.8835726 2.686945 4294830895
29.345304 -8.1113148 2.6083133 4294830895
29.936655 -8.5473862 2.6338325 4294830895
20.825182 -4.1884727 2.1884432 4294830895
21.00955 -4.2807474 2.1971951 4294830895
31.370678 -9.8028307 2.7003841 4294830895
31.71907 -10.026584 2.7219465 4294830895
30.68878 -10.045429 2.6748466 4294830895
25.49156 -6.2571669 2.4077442 4294830895
26.919165 -6.9221435 2.4758263 4294830895
27.678766 -7.2817817 2.5120211 4294830895
28.702232 -7.7658482 2.5619485 4294830895
27.303087 -7.1285019 2.4948685 4294830895
29.73497 -8.2668991 2.6104705 4294830895
26.433409 -6.7421174 2.4511709 4294830895
25.885189 -6.5134673 2.4264297 4294830895
30.380917 -8.6305962 2.6406343 4294830895
28.471256 -7.8567629 2.5503883 4294830895
29.493601 -8.6734648 2.602535 4294830895
31.619869 -10.85137 2.7059021 4294830895
23.452021 -5.2989922 2.3017609 4294830895
27.503756 -7.1831379 2.4946301 4294830895
26.100916 -6.5466156 2.4288063 4294830895
27.747725 -7.3641305 2.5037987 4294830895
27.308311 -7.1804171 2.4855595 4294830895
31.023367 -8.9323282 2.6582344 4294830895
28.569344 -7.88096 2.5420067 4294830895
26.088863 -6.7148523 2.4311824 4294830895
24.001743 -5.71876 2.3277879 4294830895
25.371658 -6.3836136 2.3871922 4294830895
31.348555 -10.124772 2.6755657 4294830895
30.54549 -10.227019 2.6432223 4294830895
31.224985 -10.635762 2.6753485 4294830895
30.647583 -10.339253 2.6504698 4294830895
30.872908 -11.288899 2.6545885 4294830895
31.1318 -11.469248 2.6650517 4294830895
30.63843 -11.599205 2.6398811 4294830895
29.02957 -7.8957653 2.5544894 4294830895
27.113022 -7.0227137 2.4667735 4294830895
27.947094 -7.4174194 2.5046921 4294830895
28.309814 -7.6152806 2.5190475 4294830895
27.328392 -7.1695862 2.4753184 4294830895
28.499619 -7.7277117 2.5307436 4294830895
27.311504 -7.1822472 2.4759171 4294830895
28.399376 -7.7020078 2.5250874 4294830895
26.688025 -6.9721446 2.4431446 4294830895
21.767527 -4.6310053 2.2185996 4294830895
31.746086 -9.4145632 2.6805558 4294830895
26.816614 -7.0716529 2.4495087 4294830895
31.958153 -10.455661 2.6968727 4294830895
31.55241 -10.263642 2.673852 4294830895
30.780733 -9.8573523 2.6367955 4294830895
31.490463 -10.495783 2.6673453 4294830895
31.429964 -11.550385 2.6731079 4294830895
31.995565 -11.982949 2.6902926 4294830895
31.815636 -11.896095 2.6829596 4294830895
31.696487 -12.316541 2.6751502 4294830895
29.639807 -8.189291 2.5706537 4294830895
29.52589 -8.1481724 2.5653892 4294830895
30.596043 -8.6686716 2.6136229 4294830895
27.83716 -7.3956156 2.4870398 4294830895
27.831224 -7.4045076 2.4883134 4294830895
30.453066 -8.6403179 2.6069062 4294830895
27.606441 -7.3209901 2.4798672 4294830895
21.408661 -4.4685235 2.1990745 4294830895
31.072483 -10.003116 2.6409225 4294830895
30.670425 -10.035169 2.6181853 4294830895
30.729342 -10.731832 2.6196992 4294830895
30.918802 -11.224453 2.6319969 4294830895
31.841063 -11.855543 2.6782956 4294830895
31.654375 -11.806918 2.6716824 4294830895
31.398949 -11.669826 2.6566255 4294830895
30.678965 -11.230428 2.6244872 4294830895
30.656023 -11.55875 2.6230023 4294830895
31.097122 -11.869733 2.643034 4294830895
31.45961 -12.156381 2.6595206 4294830895
31.437464 -9.0597687 2.6375265 4294830895
28.687315 -7.8051081 2.5169976 4294830895
28.184784 -7.5815277 2.4951334 4294830895
28.650915 -7.8105917 2.515986 4294830895
31.221186 -9.0278406 2.6295555 4294830895
31.734232 -9.2827215 2.6523836 4294830895
21.974022 -4.739171 2.2181346 4294830895
28.635778 -8.1945086 2.5138249 4294830895
30.795818 -9.5972404 2.6001403 4294830895
31.529673 -10.013088 2.6470437 4294830895
31.724285 -10.855373 2.6537354 4294830895
31.795755 -11.311494 2.6580515 4294830895
31.352364 -11.084649 2.6383467 4294830895
31.057775 -10.919039 2.6256218 4294830895
30.886799 -10.828217 2.6170955 4294830895
31.145144 -10.999566 2.6286225 4294830895
30.803802 -10.804376 2.6153898 4294830895
30.727459 -10.770923 2.6123013 4294830895
30.90995 -11.178669 2.6208742 4294830895
31.029301 -11.267941 2.6259007 4294830895
31.927406 -11.86738 2.6635158 4294830895
31.135284 -11.389977 2.6312013 4294830895
30.536367 -11.020167 2.6046839 4294830895
31.578911 -11.701801 2.6512527 4294830895
30.544783 -11.051794 2.6061192 4294830895
31.359667 -11.588963 2.6413167 4294830895
30.910419 -11.313467 2.6215489 4294830895
31.38722 -11.634458 2.6417243 4294830895
31.668171 -11.829702 2.6508431 4294830895
31.324104 -11.621413 2.6385138 4294830895
31.967567 -12.05224 2.6671362 4294830895
30.489187 -11.107306 2.602433 4294830895
31.990055 -12.458142 2.6698587 4294830895
30.378681 -11.423666 2.5997269 4294830895
30.466303 -11.496078 2.6033032 4294830895
31.512339 -12.219645 2.6361675 4294830895
30.777664 -8.7418308 2.5960779 4294830895
29.899117 -8.3467817 2.5583842 4294830895
30.444862 -8.6266708 2.5833862 4294830895
28.317289 -7.6444545 2.4909377 4294830895
29.773991 -8.3371849 2.5536392 4294830895
31.312389 -9.0703745 2.6188886 4294830895
29.700764 -8.3265972 2.5499411 4294830895
31.592829 -9.2301121 2.6314888 4294830895
25.575621 -6.4674969 2.3691161 4294830895
30.916901 -9.3674011 2.6043839 4294830895
31.074997 -9.7043848 2.6061802 4294830895
29.814684 -9.0717182 2.5569022 4294830895
29.188164 -8.7551861 2.5309043 4294830895
30.398268 -9.4038038 2.5838349 4294830895
30.535089 -9.4881887 2.5852282 4294830895
29.709663 -9.2375183 2.5512195 4294830895
30.0443 -9.4314585 2.5662813 4294830895
31.044754 -9.9879255 2.6096814 4294830895
30.978579 -10.168315 2.6089337 4294830895
30.240709 -9.7937145 2.5725307 4294830895
32.002777 -10.813002 2.6493001 4294830895
31.629677 -11.2536 2.6390781 4294830895
31.483389 -11.178703 2.6342957 4294830895
31.498735 -11.201977 2.6335454 4294830895
31.443695 -11.182171 2.6286087 4294830895
30.742693 -10.767159 2.6014001 4294830895
31.00028 -10.938362 2.6119938 4294830895
31.650085 -11.648229 2.6377594 4294830895
31.276205 -11.45253 2.6235728 4294830895
30.855247 -11.197676 2.6064572 4294830895
31.136362 -11.390871 2.6201108 4294830895
31.593876 -11.725478 2.6361976 4294830895
31.683424 -11.797166 2.639823 4294830895
30.840162 -11.268287 2.6052864 4294830895
31.545252 -12.158344 2.635956 4294830895
30.682528 -11.629737 2.6000676 4294830895
30.566418 -11.564127 2.5949843 4294830895
29.695316 -8.2891083 2.5384104 4294830895
30.286198 -8.5777168 2.5632727 4294830895
30.773699 -9.5477791 2.5837791 4294830895
29.968435 -9.1523123 2.5503278 4294830895
29.718138 -9.0335512 2.5408309 4294830895
30.207346 -9.3034153 2.5625007 4294830895
30.876116 -9.6684189 2.5888538 4294830895
31.840872 -10.406754 2.6321464 4294830895
31.063271 -9.998064 2.5968316 4294830895
31.67803 -10.559752 2.6278322 4294830895
30.437149 -9.9043684 2.5698943 4294830895
31.080055 -10.293018 2.5983338 4294830895
31.869785 -11.313394 2.6334765 4294830895
31.451143 -11.074959 2.6140516 4294830895
31.889492 -11.426152 2.6361773 4294830895
31.26017 -11.111679 2.6107793 4294830895
30.987532 -11.228082 2.5982733 4294830895
30.904539 -11.215608 2.5926116 4294830895
30.774023 -11.145909 2.589884 4294830895
30.772877 -11.158567 2.5911248 4294830895
31.582968 -11.704549 2.6234846 4294830895
31.06448 -11.385702 2.6021862 4294830895
31.504395 -11.682134 2.6190259 4294830895
31.472893 -11.676003 2.6199968 4294830895
31.872343 -12.01949 2.6356504 4294830895
31.583834 -12.170305 2.6233814 4294830895
30.51675 -11.465097 2.5789664 4294830895
31.33823 -12.03278 2.6145933 4294830895
30.416174 -11.423301 2.5760515 4294830895
31.340946 -12.062421 2.6163704 4294830895
30.390533 -11.431817 2.5742378 4294830895
30.357275 -11.422188 2.5729911 4294830895
29.766861 -8.3231592 2.5293226 4294830895
30.665125 -8.7556105 2.5660937 4294830895
24.710279 -6.0534797 2.3189816 4294830895
31.014605 -9.7012739 2.5831432 4294830895
29.772823 -9.0627232 2.5327938 4294830895
30.723591 -9.5751257 2.5706925 4294830895
31.684052 -10.534494 2.6107802 4294830895
31.476219 -10.446659 2.6020379 4294830895
31.736685 -10.620746 2.6126902 4294830895
30.846268 -10.134497 2.5750728 4294830895
31.355526 -10.642859 2.5979626 4294830895
31.579861 -10.786498 2.6073225 4294830895
31.615387 -10.821157 2.6086404 4294830895
31.159477 -10.639267 2.5913682 4294830895
31.322884 -10.984178 2.5997071 4294830895
31.538191 -11.127897 2.6077302 4294830895
31.460974 -11.10916 2.6034868 4294830895
31.836163 -11.350684 2.6191831 4294830895
31.732237 -11.316143 2.61497 4294830895
31.219336 -11.017833 2.5935793 4294830895
31.226173 -11.035724 2.5935433 4294830895
30.12425 -10.401315 2.5487132 4294830895
30.902056 -10.891735 2.5811472 4294830895
31.22187 -11.376952 2.5962081 4294830895
30.917446 -11.197165 2.5823152 4294830895
31.112597 -11.34842 2.5898552 4294830895
31.518507 -11.621164 2.6064854 4294830895
31.880169 -11.866404 2.6212823 4294830895
31.360428 -11.561906 2.6000922 4294830895
31.19363 -11.468735 2.5942569 4294830895
31.4669 -11.658299 2.6068354 4294830895
31.19865 -11.499402 2.5943832 4294830895
30.859283 -11.347776 2.5803425 4294830895
30.825514 -11.33921 2.5786951 4294830895
30.877066 -11.708073 2.5811319 4294830895
31.622665 -12.239099 2.6143539 4294830895
30.871004 -11.75762 2.5809197 4294830895
30.952929 -11.82671 2.5853925 4294830895
31.740128 -12.375412 2.6175528 4294830895
31.341131 -9.0726604 2.5801415 4294830895
31.254288 -9.0578241 2.5753961 4294830895
29.376183 -8.278903 2.4963753 4294830895
22.496861 -4.9886785 2.2178013 4294830895
30.628172 -9.4592514 2.5535629 4294830895
30.652905 -9.4852619 2.5542433 4294830895
30.271879 -9.2990541 2.5389211 4294830895
31.627346 -10.022476 2.5934076 4294830895
29.510193 -8.9246683 2.5085452 4294830895
30.921062 -9.8673744 2.5654719 4294830895
30.67588 -9.7482758 2.5557659 4294830895
30.623625 -9.7331553 2.5534999 4294830895
30.653698 -9.7626362 2.5547283 4294830895
31.690855 -10.339751 2.5973413 4294830895
30.805294 -10.018438 2.5620625 4294830895
30.976151 -10.207935 2.5699203 4294830895
30.658356 -10.042579 2.5574532 4294830895
31.714733 -10.836217 2.5992496 4294830895
31.509703 -10.732018 2.5907698 4294830895
31.320889 -10.733912 2.5852358 4294830895
31.322081 -10.748364 2.5844238 4294830895
31.788013 -11.264571 2.6049261 4294830895
31.529663 -11.122665 2.5914521 4294830895
31.452196 -11.104057 2.5907264 4294830895
31.229698 -10.982969 2.5803344 4294830895
31.84016 -11.367653 2.6064382 4294830895
31.75666 -11.331141 2.6024318 4294830895
31.157024 -10.979983 2.5778539 4294830895
31.238159 -11.04319 2.5812151 4294830895
31.685354 -11.330309 2.5992067 4294830895
31.271431 -11.091115 2.5829451 4294830895
30.10886 -10.392072 2.5369143 4294830895
30.851589 -10.860837 2.5659502 4294830895
31.236361 -11.372442 2.5827355 4294830895
31.105434 -11.303154 2.5777586 4294830895
31.020273 -11.262671 2.5743396 4294830895
31.095947 -11.337952 2.5766127 4294830895
31.470995 -11.590963 2.5913894 4294830895
31.509266 -11.62939 2.5925503 4294830895
31.165941 -11.450755 2.5757067 4294830895
31.375216 -11.599275 2.5872412 4294830895
31.576868 -11.742898 2.5930717 4294830895
30.414047 -11.059007 2.5507405 4294830895
30.546234 -11.157874 2.5558565 4294830895
30.522051 -11.468834 2.5537896 4294830895
30.339088 -11.358422 2.546999 4294830895
30.633371 -11.570259 2.5587156 4294830895
30.377312 -11.410101 2.5487933 4294830895
30.389938 -11.431603 2.5495188 4294830895
30.810703 -11.730191 2.5658402 4294830895
30.554497 -8.6918249 2.5352468 4294830895
31.449736 -9.1236858 2.5702846 4294830895
31.920801 -9.358037 2.5884445 4294830895
31.566349 -9.3025484 2.5746155 4294830895
31.67691 -10.048848 2.5825279 4294830895
29.81214 -9.0835886 2.509387 4294830895
30.015556 -9.2022953 2.5139148 4294830895
31.440367 -9.9666758 2.573374 4294830895
30.805721 -9.7919674 2.54795 4294830895
31.117874 -9.9739075 2.5609832 4294830895
31.663256 -10.310564 2.5812566 4294830895
31.039484 -9.9857206 2.5572248 4294830895
31.395517 -10.346237 2.5719626 4294830895
31.196135 -10.31768 2.5630574 4294830895
30.862659 -10.144087 2.5506413 4294830895
30.712196 -10.072787 2.5447946 4294830895
31.081715 -10.471317 2.5595427 4294830895
31.317503 -10.621059 2.5686562 4294830895
31.581068 -10.787365 2.5792084 4294830895
31.475389 -10.740346 2.5760961 4294830895
31.199989 -10.64947 2.5659821 4294830895
30.4587 -10.229266 2.5355318 4294830895
31.509884 -10.858009 2.5732696 4294830895
31.144943 -10.877077 2.5644336 4294830895
31.235916 -10.945549 2.5669091 4294830895
31.263693 -10.976219 2.5692973 4294830895
31.29995 -11.011849 2.569566 4294830895
31.664244 -11.260777 2.5840075 4294830895
31.21913 -11.004124 2.5662041 4294830895
31.146809 -10.973871 2.5641727 4294830895
31.202644 -11.021639 2.5665641 4294830895
31.395081 -11.152991 2.5740716 4294830895
31.049337 -10.955102 2.5591292 4294830895
30.270893 -10.491355 2.5288069 4294830895
31.994745 -11.562421 2.5911877 4294830895
31.055387 -11.271382 2.5609314 4294830895
30.975515 -11.23423 2.5580239 4294830895
30.874849 -11.183676 2.5541108 4294830895
31.060213 -11.315308 2.5623667 4294830895
31.287676 -11.474055 2.5707567 4294830895
31.712971 -11.759783 2.5877423 4294830895
31.883963 -11.883518 2.5948858 4294830895
31.243914 -11.487401 2.5687783 4294830895
31.502726 -11.667313 2.5780311 4294830895
30.931791 -11.31388 2.5525806 4294830895
30.89646 -11.304707 2.5526979 4294830895
30.716612 -11.255213 2.5464706 4294830895
30.298864 -11.357071 2.5330379 4294830895
30.493267 -11.501769 2.5413525 4294830895
31.47093 -9.1590939 2.5548885 4294830895
25.038069 -6.1372561 2.3043118 4294830895
28.582319 -7.8206387 2.4419684 4294830895
28.824104 -7.9710646 2.453855 4294830895
27.314743 -7.2655463 2.3984227 4294830895
25.157188 -6.2599034 2.3128059 4294830895
31.224876 -9.7844667 2.5506754 4294830895
30.632504 -9.4883223 2.5285375 4294830895
30.660564 -9.5161638 2.5295048 4294830895
29.857056 -9.1074686 2.499486 4294830895
31.035427 -9.7536383 2.545399 4294830895
30.603689 -9.6701727 2.5273151 4294830895
30.697161 -9.7337151 2.531163 4294830895
30.692095 -9.7442017 2.530947 4294830895
29.84852 -9.3013449 2.4989016 4294830895
30.38719 -9.6055079 2.5193985 4294830895
30.402637 -9.6267614 2.519664 4294830895
31.508783 -10.240504 2.5591741 4294830895
30.988922 -10.161255 2.5433099 4294830895
31.235069 -10.312296 2.5521495 4294830895
31.08053 -10.239453 2.5459099 4294830895
31.041157 -10.230892 2.5438776 4294830895
30.952768 -10.194626 2.539382 4294830895
30.857494 -10.15465 2.5369596 4294830895
31.528028 -10.770952 2.5642662 4294830895
31.125662 -10.565005 2.547823 4294830895
31.7661 -10.965982 2.5736206 4294830895
30.692358 -10.352897 2.531914 4294830895
30.571642 -10.295533 2.5276823 4294830895
31.692163 -11.249448 2.571218 4294830895
31.274073 -11.037704 2.5553663 4294830895
31.098104 -10.944295 2.548856 4294830895
31.202314 -11.02158 2.5534787 4294830895
31.430832 -11.174996 2.5622811 4294830895
31.049759 -10.955568 2.5469978 4294830895
30.333292 -10.529815 2.5197027 4294830895
30.94763 -10.919991 2.5430138 4294830895
31.170595 -11.385722 2.5527861 4294830895
31.482901 -11.598769 2.5646532 4294830895
31.810127 -11.821975 2.5772777 4294830895
31.625565 -11.718092 2.5698948 4294830895
30.667786 -11.118081 2.5335572 4294830895
31.452547 -11.635462 2.5660057 4294830895
31.828295 -11.890693 2.5752349 4294830895
24.128437 -5.6082144 2.2644536 4294830895
29.083897 -8.0663252 2.4467258 4294830895
27.824913 -7.4972725 2.406018 4294830895
22.393999 -4.934339 2.1986194 4294830895
31.933861 -10.458063 2.5655167 4294830895
31.854231 -10.687393 2.5624754 4294830895
30.752544 -10.081861 2.5163665 4294830895
31.833693 -10.716994 2.5500994 4294830895
31.449003 -11.172379 2.5505431 4294830895
31.309105 -9.0717602 2.5226846 4294830895
22.995213 -5.1698771 2.2155626 4294830895
22.47081 -4.9281173 2.1961265 4294830895
29.171087 -8.1240168 2.4429173 4294830895
28.400913 -7.7723708 2.418071 4294830895
23.81694 -5.6165771 2.246115 4294830895
21.529438 -4.5269756 2.1649668 4294830895
31.231743 -10.076257 2.5207701 4294830895
31.507463 -10.520706 2.5337317 4294830895
31.839777 -11.841043 2.5492842 4294830895
23.5245 -5.4198618 2.2293003 4294830895
22.193504 -4.7971573 2.1809011 4294830895
30.722076 -8.8467417 2.4863858 4294830895
22.068398 -4.777925 2.1762772 4294830895
21.108824 -4.3251309 2.1456115 4294830895
31.399811 -10.418642 2.5169282 4294830895
21.923923 -4.6709104 2.1671956 4294830895
21.674175 -4.5580363 2.1587648 4294830895
27.948887 -7.5328078 2.3758106 4294830895
24.456882 -5.9240408 2.2560954 4294830895
21.223911 -4.3808985 2.1462607 4294830895
30.979616 -10.480539 2.4888685 4294830895
31.361198 -10.716306 2.5025098 4294830895
31.070528 -10.588113 2.4944773 4294830895
31.750895 -11.770258 2.5189838 4294830895
28.738239 -7.8756509 2.393981 4294830895
29.863884 -8.4292059 2.4314768 4294830895
