# .PCD v0.7 - Point Cloud Data file format
VERSION 0.7
FIELDS x y z rgb
SIZE 4 4 4 4
TYPE F F F U
COUNT 1 1 1 1
WIDTH 72
HEIGHT 1
VIEWPOINT 0 0 0 1 0 0 0
POINTS 72
DATA ascii
81.962639 2.8880622 3.2555635 4291654791
81.956841 2.7353854 3.2455852 4291654791
81.912949 2.6981218 3.2334218 4291654791
81.972557 3.3316934 3.2386835 4291654791
81.959282 3.5460184 3.159313 4291654791
81.901749 3.4999056 3.1449888 4291654791
81.813316 3.4455447 3.1241546 4291654791
81.954033 3.5752888 3.1320684 4291654791
81.87278 3.5220709 3.113106 4291654791
81.80928 3.4744451 3.0977921 4291654791
81.956566 3.6069999 3.1063135 4291654791
81.869164 3.5515895 3.0864506 4291654791
81.784164 3.4974754 3.0670276 4291654791
81.968422 3.6417439 3.0822058 4291654791
81.875336 3.5841734 3.0616217 4291654791
81.779099 3.5264406 3.0402074 4291654791
81.890884 3.6198437 3.0383852 4291654791
81.950294 3.7005041 2.9968133 4291654791
77.942215 1.4441462 1.6155238 4291654791
77.24205 1.3331074 1.5595174 4291654791
77.04335 1.2920187 1.5429437 4291654791
75.604897 1.1311518 1.4236025 4291654791
74.930252 1.0284081 1.3719952 4291654791
75.484703 1.0961543 1.4131274 4291654791
76.261154 1.1900234 1.4706519 4291654791
77.292526 1.3125286 1.5471071 4291654791
73.782455 0.86983347 1.281533 4291654791
74.860382 1.0124058 1.3590833 4291654791
75.886162 1.141534 1.4323798 4291654791
76.392555 1.1963673 1.4678618 4291654791
73.763603 0.86756676 1.2763445 4291654791
74.784431 1.0026803 1.3467218 4291654791
75.84713 1.1372681 1.4195181 4291654791
76.920372 1.2668624 1.4925444 4291654791
77.471527 1.3229296 1.52921 4291654791
74.768562 1.0147426 1.3398435 4291654791
74.713188 1.0001963 1.3356372 4291654791
75.410614 1.088641 1.3813213 4291654791
76.292976 1.1975614 1.4388918 4291654791
77.253311 1.3113546 1.5011774 4291654791
78.017403 1.3940668 1.5501209 4291654791
78.905792 1.4877725 1.6069406 4291654791
78.77002 1.5859151 1.5879469 4291654791
76.675278 1.2746708 1.4535244 4291654791
76.724915 1.2689401 1.4556983 4291654791
77.275612 1.329828 1.4894261 4291654791
78.007408 1.4110246 1.5342618 4291654791
78.881935 1.5060968 1.5876881 4291654791
78.626694 1.4534767 1.5701376 4291654791
79.505043 1.5417765 1.6232562 4291654791
80.165825 1.5986692 1.6624794 4291654791
81.291679 1.706012 1.7300997 4291654791
80.321182 1.5433897 1.6638558 4291654791
79.606262 1.6858088 1.6182889 4291654791
78.725342 1.5438949 1.5635597 4291654791
78.804886 1.535846 1.5668964 4291654791
79.249588 1.5750662 1.5920227 4291654791
79.911415 1.6394039 1.6298798 4291654791
80.515549 1.692313 1.6640053 4291654791
80.865005 1.7101188 1.6827421 4291654791
81.27816 1.895623 1.691082 4291654791
80.783958 1.8029609 1.6608657 4291654791
80.857712 1.7876943 1.6631339 4291654791
81.344818 1.8250893 1.688755 4291654791
81.762833 3.7922745 -0.15191346 4291654791
81.728752 3.7528925 -0.14920519 4291654791
81.767242 3.7358317 -0.15718906 4291654791
81.59906 3.7421212 -0.15836066 4291654791
81.586685 3.7102654 -0.15843964 4291654791
81.963852 4.0764222 -0.3125636 4291654791
81.930771 4.0968871 -0.33525988 4291654791
81.869102 4.0464997 -0.32787967 4291654791
