# .PCD v0.7 - Point Cloud Data file format
VERSION 0.7
FIELDS x y z
SIZE 4 4 4
TYPE F F F
COUNT 1 1 1
WIDTH 118
HEIGHT 1
VIEWPOINT 0 0 0 1 0 0 0
POINTS 118
DATA ascii
-7.215601e-28 6.580128e+23 -9.72865e-24
-0.47215179 1.080709 0.0069807367
1.4207391e-08 4.3633726e+13 -7904.4951
-0.47216049 1.0807089 0.0069302516
9.1808703e-35 -1.390296e+37 -8.3789865e+20
-0.47063887 1.080731 0.0070184232
1.1038689e+19 0.00020895309 1.0608218e+15
-0.98493063 0.4955411 -0.0051819123
2.3627508e+17 3.3256639e-19 2.6923418e+08
-0.98516893 0.31071392 -0.012835254
2.0367594e+18 6.9408233e-28 3.0443556e-30
0.92886543 1.1575595 0.012270463
4.138789e+23 3.0691971e+37 1.4391225e-33
-0.98516893 0.3106769 -0.0039973902
-4.1222273e-15 -5.5922181e-17 2.7400201e+17
-0.98516953 0.30130583 0.0036837463
9.4071888e+11 -7.155736e+32 -9.8058256e-39
-0.98516893 0.31074589 -0.01189346
9.4074143e+11 -2.9921131e+32 -1.690029e+29
-0.98516893 0.31074589 -0.011893443
-1.4459486e-30 2.9094436e+18 1.6068215e+18
-0.47214392 1.0807091 0.021598341
-4.3219142e-35 1.4663622e-12 -1.1820246e+09
-0.98516202 0.35414514 0.0049032271
1.973964e+38 2.9552921e+13 -0.14368755
-0.47216049 1.0807089 0.0089059006
-5.3719201e-10 6.548377 -6.9024629e-25
-0.47161496 1.0807168 0.0069028232
1.9528456e+38 2.9553714e+13 1.2912951e+20
-0.47216049 1.0807089 0.008887833
-1.2049958e+08 -1.4319507e-08 -1.03628e+30
-0.47053525 1.0807326 0.0070984717
3827036.5 21482.41 -5.7646456e-22
-0.98516893 0.31077784 -0.0035138978
-1.3503441e-17 2.6310754e+36 4.5106807e-32
-0.98426956 0.60820997 -0.0047094226
1.0373391e-05 4.2417869e+13 7.6843381e+30
-0.47216049 1.0807089 0.0066597797
-1.4565421e-07 385.00217 5.2581038e-31
-0.47203878 1.0807106 0.0060770269
-4.4921232e+18 -2.6554505e+16 2.2419072e+08
-0.47213179 1.0807092 0.0059750457
-2.6766094e+29 6.064042e-18 -1.9612693e-23
-0.98517293 -0.1886498 -0.0044538444
-8.6369916e+17 1.4035861e+08 -3.8505509e-26
-0.98449421 0.58129716 0.0041644857
-1.1866143e-09 4.7962906e-18 1.2445527e+21
-0.98608357 -0.60909355 0.0046471194
-0.90922749 -3.6030799e+29 9.437168e-17
-1.0966786 -1.0837104 -0.011048313
2.0592781e+27 2.8398679e-19 2.3724922e-09
-0.98516893 0.31065497 -0.013059388
-2.5152826e+27 4.4735985e+09 5.3175022e-28
-0.9897725 -0.75637484 -0.0045304932
-2.8400179e+08 -7.7413007e+36 2.4453363e-14
0.86543489 1.1301159 0.010829565
-1.7786117e-31 57685.891 9.6513414e-21
-0.98516744 0.32294536 0.0037846854
8.3220727e-26 4.8027534e-37 -190.77113
-0.986929 -0.66768253 -0.0030943484
-2.7914774e+30 -6.5072621e+11 -1.9434913e+31
-0.77877426 1.0598603 0.0036047325
40.546318 -4.3949782e-09 -1.9821587e-29
-0.46876627 1.0807585 0.0069562695
1.3285745e+29 -3.3326845e-29 0.078999437
-0.46984342 1.0807427 0.0046010739
1.9867649e+38 2.9552439e+13 -1.8462347e-26
-0.47216049 1.0807089 0.0082641663
-476107.38 -9.1089769e+17 1.8730453e-27
-0.98515993 0.36208272 0.0037128842
-1.3118203e-32 -8.5886627e+33 2.0062654e-24
-0.98513061 0.41551319 0.0046042968
-6.8943023e-19 2.3238619e+38 1.7633122e-09
-0.96307933 0.89520699 0.0038670199
2.276804e-22 -7.043161e-17 1.6690066e-24
-0.47182375 1.0807137 0.0063643279
-0.00017005327 -1.0123681e-06 -1.2262963e-19
-0.98519421 -0.38464093 -0.0025450387
6.7275069e+37 2.965444e+13 4.4768711e+20
-0.47216049 1.0807089 0.010305463
-1.4808164e-12 -6.3597803e-36 -49053588
-0.32103449 1.0811975 0.0052444912
5.4391215e-33 -2.6677442e-11 2.2207461e-36
-0.47248378 1.0807041 0.0063652406
5.2433145e-12 3.600208e+11 7.1042774e+27
-0.4616473 1.0808107 0.0088674836
1.2334958e+32 -1.6151447e+13 1.5926142e-15
-0.46925426 1.0807513 0.004219905
-5.8050646e+27 -1.2789556e+23 4.8888193e-20
-0.9775933 0.80099601 -0.0042291554
-231625.39 -109.63225 2.3317216e-14
0.78721356 1.1045455 0.0072102947
1.1431983e-17 -6.0811665e-08 -8.4239306e+11
-0.47052708 1.0807327 0.012128839
6.009962e-36 -1.277945e+16 5.6112854e-06
0.55989522 1.0830054 0.0060496489
9.1222582e-30 3.2498065e-35 9.1526372e-26
-1.0902305 -1.0716411 -0.0089300117
-6.8325133e+23 -690.25031 -1.7311999e+30
-0.46190092 1.0808088 0.006981608
1.3859831e+12 1.9816335e-30 -7.2786545e+25
-0.98516893 0.31074494 -0.012595674
-1.3487341e-08 -3.3713384e+31 1.5619264e-07
0.49380639 1.082039 0.0048183692
9.5713449e-27 9.2031839e+18 -3.7977781e-16
-0.98522204 -0.42208424 -0.011356588
4.1641084e-19 2.1386014e-18 1.5983512e-38
0.65498859 1.0866256 0.0068916054
5.1364558e+13 8.8644768e+08 27790562
1.0019605 1.2219268 0.010028677
-1.1336045e+38 -5.9063562e-30 -6.8694766e-31
-0.46867061 1.0807593 -0.0045262906
-1.5511762e+30 -1.0957848e-16 -3.8812382e-36
0.96173966 1.1842852 -0.0034143704
68595056 8.9628942e-39 -2.5749944e-19
0.73023731 1.0935268 0.0058791721
-2.3804683e+29 6.8609323e+19 1.4587698e-26
-1.3471023 -1.4320827 -0.0056178169
