# .PCD v0.7 - Point Cloud Data file format
VERSION 0.7
FIELDS x y z
SIZE 4 4 4
TYPE F F F
COUNT 1 1 1
WIDTH 1306
HEIGHT 1
VIEWPOINT 0 0 0 1 0 0 0
POINTS 1306
DATA ascii
34.714283 2.7653813 40.982067
28.104092 3.7934854 41.207264
33.097027 1.3853735 40.828053
28.442173 5.0811548 40.977573
35.018749 -8.0153961 41.063423
27.91713 1.9889431 40.893105
38.603813 2.4591148 40.440704
31.910131 3.6922402 41.098782
33.097027 1.3853735 40.828053
-0.715267 13.794372 63.433006
33.731255 1.8031164 41.179672
27.756001 5.2345457 41.285606
33.731255 1.8031164 41.179672
33.175884 3.2107842 40.766449
33.175884 3.2107842 40.766449
26.263138 3.9525883 41.175251
26.073587 0.26432258 41.315308
35.154716 -11.066673 41.079029
38.65324 3.4243248 39.96666
31.240381 -0.44177675 41.179657
33.910465 3.712759 41.198826
28.728966 5.0842748 40.300648
31.910131 3.6922402 41.098782
30.373295 -1.0784075 41.389847
35.192017 1.2889041 41.172333
33.30793 1.8181707 41.254086
34.884888 -9.8323107 40.96648
34.924767 -7.5625992 40.852081
35.322826 -7.3476992 41.044189
38.65324 3.4243248 39.96666
34.018089 2.4816678 40.823605
31.081736 1.8483388 40.631851
27.91713 1.9889431 40.893105
40.0821 -1.4604138 40.673149
28.25601 4.0325656 41.166618
32.122887 5.4192362 41.232964
29.792776 0.07469479 41.144104
29.907194 1.4170483 41.197899
38.901905 3.0492277 40.354813
24.959972 4.1169667 41.016445
34.018089 2.4816678 40.823605
35.7159 3.0868821 40.865211
32.79681 -0.1032869 40.472439
31.535866 -0.04389067 40.796135
32.122887 5.4192362 41.232964
33.022877 -0.5119983 40.905128
27.630919 1.9908633 41.474888
39.672558 0.94599169 40.228184
31.829039 -0.53468859 41.344738
33.022877 -0.5119983 40.905128
37.075554 -8.1414165 41.279728
32.944355 0.61460459 41.760578
29.600801 5.0937009 40.985882
33.910465 3.712759 41.198826
35.322826 -7.3476992 41.044189
34.924767 -7.5625992 40.852081
29.531902 3.7606311 41.197826
35.72126 1.794291 41.074036
29.8832 3.3500078 41.071869
34.714283 2.7653813 40.982067
32.796692 -7.5367947 41.355972
31.561718 -1.8882959 41.112846
33.6502 -0.10351392 41.208714
36.188385 -11.161889 41.137691
31.829039 -0.53468859 41.344738
35.756222 -0.60008985 41.488441
27.567997 1.5693089 41.315815
34.79649 -8.0498095 41.421547
34.342888 -11.663153 40.879139
35.824402 3.6133244 41.071342
35.824402 3.6133244 41.071342
32.796692 -7.5367947 41.355972
2.1429241 15.186551 60.687267
34.342888 -11.663153 40.879139
32.545288 -11.221597 41.189137
35.345047 -4.3449578 41.162369
29.494417 4.4736552 41.406986
32.545288 -11.221597 41.189137
34.562504 -9.4349966 41.122124
28.102818 3.2388833 40.944256
32.899822 1.1479771 40.999386
35.569241 -7.1468382 40.736485
34.019558 2.0834818 41.112499
36.776531 -9.9182882 40.879337
35.677742 -0.16062033 41.284996
20.213745 8.6369514 41.032787
31.240381 -0.44177675 41.179657
31.561718 -1.8882959 41.112846
31.822336 1.2604874 40.983341
27.567997 1.5693089 41.315815
25.154707 -4.6061311 42.153629
38.951252 1.1677275 40.061623
28.955151 -9.6378326 41.70332
38.378059 1.5628662 39.770329
27.957777 1.5751364 41.339294
29.241707 4.0322337 41.011539
25.248104 -1.0504335 41.670589
32.380981 4.3765969 41.040356
40.094791 -3.2855179 40.275517
31.535866 -0.04389067 40.796135
31.081736 1.8483388 40.631851
33.354279 -0.51742113 40.753441
36.30196 -9.8677549 40.780605
28.611753 4.2313972 41.25362
29.792776 0.07469479 41.144104
27.744833 -1.7046601 41.035255
39.737839 -14.779099 40.92556
37.261028 -6.2779617 41.397064
30.096651 3.8156953 41.281681
38.931915 -12.018074 41.369556
40.042667 4.0660219 40.110985
38.522793 1.1673666 40.052025
32.74157 4.0860748 40.691204
39.971901 -0.04872185 40.535858
40.042667 4.0660219 40.110985
34.027542 2.9196088 41.114185
32.665871 1.234934 41.573784
30.201954 -8.0113983 41.30695
39.564537 -14.253254 40.949818
33.30793 1.8181707 41.254086
28.281752 4.4396267 40.969536
29.20303 0.033221468 41.009918
33.241562 -4.2198677 40.967346
39.146229 -8.2582064 41.354549
21.53801 -12.99181 41.2948
29.907194 1.4170483 41.197899
38.092152 -1.4896744 41.132404
29.714764 -2.2998378 41.243084
34.995678 -0.55875397 40.875275
33.6502 -0.10351392 41.208714
34.995678 -0.55875397 40.875275
37.261028 -6.2779617 41.397064
27.01827 -13.330995 42.003685
20.135124 8.5757723 40.814964
37.922745 -0.96790141 41.231232
39.17485 -7.4406824 40.861801
35.355839 -7.0602474 41.080715
35.022839 -9.4773579 41.190811
35.724945 -1.9886804 41.508816
30.150591 2.5753098 41.405987
35.595798 -4.4272914 41.519192
36.188385 -11.161889 41.137691
29.211929 -11.492035 41.527416
39.146229 -8.2582064 41.354549
30.096651 3.8156953 41.281681
35.385231 -12.413288 40.820202
32.483646 -13.484459 41.327206
36.245258 -6.3435936 40.668819
32.589706 -9.7428112 41.144436
38.931915 -12.018074 41.369556
33.537594 -3.8675656 41.443314
33.359978 -5.4513621 40.919006
31.955778 3.2089736 41.1394
30.315289 -11.731351 41.278591
27.949287 -0.38616598 41.363266
28.646898 1.3766186 41.394249
35.018749 -8.0153961 41.063423
35.724945 -1.9886804 41.508816
31.217289 -10.354031 40.908649
32.437214 -10.029042 41.400246
27.444868 -13.478462 41.585373
28.446932 -3.0434945 41.586121
35.823799 -6.4377265 41.251774
35.694221 1.0803487 40.74572
21.850586 -13.502377 41.532944
32.767914 -3.0236468 41.215164
26.193344 -0.49271235 41.37426
36.872292 -0.67997134 40.929142
29.8832 3.3500078 41.071869
32.483646 -13.484459 41.327206
27.444868 -13.478462 41.585373
38.947994 -7.7775254 40.976555
33.241562 -4.2198677 40.967346
30.888561 2.1114602 40.779137
28.102818 3.2388833 40.944256
29.52734 5.4726558 41.04892
26.038641 -11.510185 41.497658
33.527081 -9.1784945 41.064716
36.332737 4.3084412 40.496819
31.217289 -10.354031 40.908649
32.858017 -1.9316026 40.730263
36.332737 4.3084412 40.496819
36.726654 1.0481656 40.758183
28.370678 -8.5591421 41.865883
33.295639 -2.3637578 40.765797
27.630919 1.9908633 41.474888
33.812805 -0.75023872 41.070976
28.966932 -11.529892 41.803356
29.714764 -2.2998378 41.243084
33.812805 -0.75023872 41.070976
35.09671 -6.1275454 41.01461
37.495865 1.2472236 40.925323
31.429892 -2.2679243 40.951073
37.177612 -4.3873558 41.024677
33.994762 -4.7874608 41.075478
36.562489 -13.190052 40.912571
29.211929 -11.492035 41.527416
35.00045 -11.804788 41.368095
35.385231 -12.413288 40.820202
25.865232 -2.211448 41.106201
36.296658 -13.25465 41.179337
19.523113 -15.064006 41.453716
35.639004 0.10793592 40.753265
28.909025 -9.2290707 41.451069
28.721828 -10.9022 41.872898
29.581142 -7.4454408 41.849964
32.874817 3.8528745 40.505215
37.497433 -2.5150809 41.347321
30.335361 2.1780949 41.633011
32.437214 -10.029042 41.400246
28.370678 -8.5591421 41.865883
30.201954 -8.0113983 41.30695
28.699594 -1.0898927 41.561699
27.480291 -1.7312164 41.672421
27.244743 -1.490086 41.796959
31.405058 -9.3714466 41.785648
29.581142 -7.4454408 41.849964
32.689575 -13.393145 40.890125
37.440979 1.8177177 39.704937
35.005104 3.6317341 40.541687
588.9549 -83.013168 737.43549
38.191219 -11.438789 40.801121
25.870617 -12.782096 42.577385
25.870617 -12.782096 42.577385
30.751078 -7.8183169 41.105789
29.02083 -3.6548929 41.058025
35.00045 -11.804788 41.368095
28.803711 -7.1197615 41.655106
40.429531 -0.10561686 40.369942
37.675362 -6.9938765 40.846436
29.20303 0.033221468 41.009918
27.739784 0.097515248 42.071953
36.562489 -13.190052 40.912571
33.295639 -2.3637578 40.765797
34.072399 -12.098839 40.850574
21.870859 -12.534812 41.29504
26.440605 -0.8058396 41.25581
28.446932 -3.0434945 41.586121
39.727821 -0.77767724 41.370338
24.176544 -9.8828173 42.381195
34.219177 -14.936796 41.132183
31.955778 3.2089736 41.1394
28.803711 -7.1197615 41.655106
29.531902 3.7606311 41.197826
36.477993 -7.4981322 41.202374
38.620422 -9.5720778 40.626705
588.9549 -83.013168 737.43549
38.388866 -2.512619 40.203854
29.963131 -9.1237621 41.932941
34.776939 -4.2875152 40.896503
36.955666 -4.3656917 41.263535
33.01862 0.69242382 41.252625
36.296658 -13.25465 41.179337
27.013506 -11.445967 41.730988
35.897247 -8.8122787 41.31728
36.955666 -4.3656917 41.263535
38.040325 -8.8763208 40.738213
28.501316 1.0707097 40.899017
28.966932 -11.529892 41.803356
38.339329 4.3359389 40.649353
38.023224 2.3800154 41.057632
33.537594 -3.8675656 41.443314
24.036877 -15.904459 41.645615
38.388866 -2.512619 40.203854
33.433849 -1.9576198 41.069172
26.704681 -11.626238 41.691841
29.296659 -9.6382618 41.496361
31.655169 -3.7901247 41.496887
40.184612 -13.462148 41.034885
28.909025 -9.2290707 41.451069
35.64613 -10.099374 41.139431
37.907085 -12.110813 40.92382
32.923935 -14.92651 41.491138
40.171116 -2.7862973 40.28867
29.760525 -0.35986355 41.389309
32.169399 -10.658078 41.359264
35.595798 -4.4272914 41.519192
37.497433 -2.5150809 41.347321
38.017399 0.46255872 40.596272
27.435781 -2.1459794 41.523663
34.264439 -3.1509047 41.286953
40.181919 -7.2510252 40.753563
39.333096 0.37349948 40.392757
31.771381 -6.3647466 41.355026
31.704586 -9.9809303 40.75058
35.277649 -10.16537 41.252544
30.568985 -4.8978062 41.691433
37.495865 1.2472236 40.925323
27.013506 -11.445967 41.730988
27.480291 -1.7312164 41.672421
36.943928 1.6680778 40.684311
38.344475 -11.925235 41.089695
31.211407 -13.10305 41.75552
36.792824 -0.63050234 40.685547
31.065317 -13.433766 41.516338
39.371986 -2.7980664 40.710217
39.597748 4.4808879 39.953457
36.943104 1.2814739 40.689194
27.512594 -3.657131 41.989574
33.872742 -10.65012 41.447556
39.039471 -6.3130894 41.004372
27.739784 0.097515248 42.071953
36.792824 -0.63050234 40.685547
38.094208 2.5852323 40.440376
21.53801 -12.99181 41.2948
37.586967 7.3286538 38.724487
28.429674 -4.8013148 41.490887
38.378059 1.5628662 39.770329
35.897247 -8.8122787 41.31728
32.556149 -6.996479 41.223751
35.43523 -10.784913 40.927296
32.343075 -3.5347536 41.585365
35.639133 -2.0370677 41.457329
38.681866 -0.28545263 40.469662
9.1202049 -8.5864363 107.05106
37.719143 -0.23199444 41.475578
29.940495 -3.7599473 42.156193
33.161407 -11.857936 41.275936
39.284309 -3.4121876 40.342201
37.910786 -3.280437 40.815281
35.892849 -13.445224 40.490353
36.074612 4.4950976 40.448372
30.208395 3.1264527 41.290169
37.910786 -3.280437 40.815281
35.601288 -10.700083 41.237976
32.515747 -2.6809812 41.137959
27.512594 -3.657131 41.989574
36.833714 4.264431 40.503822
34.543674 -8.3381958 41.581074
30.650818 0.69271904 41.471493
29.096348 -5.9282851 41.461872
31.257704 5.0712867 40.409798
33.563931 -14.384192 41.315594
36.833714 4.264431 40.503822
32.907894 -5.7049818 41.269936
35.639004 0.10793592 40.753265
37.910786 -3.280437 40.815281
38.352261 -4.6828384 40.799362
35.180927 -3.8822503 40.7892
37.249161 3.1313517 40.987331
29.940495 -3.7599473 42.156193
35.385231 -12.413288 40.820202
36.274933 2.3934274 40.741867
37.42078 3.1104383 40.572998
40.107243 -8.124218 40.34586
32.907894 -5.7049818 41.269936
35.902084 4.7735047 40.636555
28.446932 -3.0434945 41.586121
31.017811 -0.58510864 41.270725
28.955151 -9.6378326 41.70332
34.594315 -1.0069935 40.614483
39.569763 -0.29331663 41.114758
35.892849 -13.445224 40.490353
27.873585 -2.1453886 41.679371
29.051277 0.31553644 41.140694
35.601288 -10.700083 41.237976
32.876869 0.1539351 40.965931
27.435781 -2.1459794 41.523663
28.681442 -6.8498545 42.532364
33.59819 -4.9993463 41.003841
32.961395 -2.3283641 40.941879
29.02902 -12.84672 41.20052
34.593624 4.4458113 40.954117
31.655169 -3.7901247 41.496887
29.500578 -4.0651784 41.243534
38.508297 -8.1771784 40.964687
38.017399 0.46255872 40.596272
28.762426 -13.339289 41.608395
27.01827 -13.330995 42.003685
35.639133 -2.0370677 41.457329
31.065317 -13.433766 41.516338
32.689575 -13.393145 40.890125
28.278749 0.38585961 41.586018
36.943104 1.2814739 40.689194
30.568985 -4.8978062 41.691433
31.850761 -2.5417414 41.247581
30.897085 -0.98369205 41.188419
39.231014 -14.065193 41.062485
8.2600908 0.1486738 -9.2103128
38.909481 -3.7028036 39.974056
28.755541 -11.038146 41.318611
36.739429 -11.822829 41.081821
8.2600908 0.1486738 -9.2103128
29.482378 -7.813211 41.792881
33.860168 -1.5605686 40.98531
18.802162 -7.8025093 36.938179
26.183537 7.1216249 39.363468
29.02902 -12.84672 41.20052
38.699795 -11.490491 40.934158
34.519482 -4.9726696 41.179581
30.842703 -4.374444 41.445702
26.440605 -0.8058396 41.25581
31.755621 -12.324587 41.286037
31.49798 -5.627625 41.474903
36.37167 3.8070016 40.805305
27.053085 -5.2250881 41.76263
36.274933 2.3934274 40.741867
34.264439 -3.1509047 41.286953
35.601288 -10.700083 41.237976
29.500578 -4.0651784 41.243534
31.546562 -10.784127 41.381489
38.522793 1.1673666 40.052025
36.872292 -0.67997134 40.929142
28.755541 -11.038146 41.318611
38.620422 -9.5720778 40.626705
29.469652 -11.756693 41.608368
38.572456 -9.9621649 40.583958
39.996449 -7.6116323 41.127136
30.568985 -4.8978062 41.691433
34.264439 -3.1509047 41.286953
35.140152 7.7562399 36.702919
28.370678 -8.5591421 41.865883
31.920357 -14.145681 41.140919
39.529888 -0.72565281 41.159164
34.305511 -0.70067948 40.895058
38.636951 2.8677676 40.305202
29.294783 -9.2239895 41.487564
29.077501 -2.4458873 41.661209
39.66156 -8.9361744 40.759655
26.165382 -4.6693058 41.869755
31.51701 -7.1649399 40.567013
29.760525 -0.35986355 41.389309
39.546459 3.9522319 40.260372
40.178654 4.3273816 39.876038
31.473921 -6.0180807 41.511368
31.547768 -7.9706697 41.936531
47.655785 -3.2481928 51.351662
39.039471 -6.3130894 41.004372
38.009731 -13.060254 40.043617
29.187162 0.85704565 41.508488
16.270878 -2.144738 5.4099355
36.591522 -5.7917247 40.909367
38.909481 -3.7028036 39.974056
27.143177 -5.4073787 41.284943
27.215893 -7.7555556 41.809616
31.547768 -7.9706697 41.936531
13.031263 9.8225174 48.100677
28.539085 0.6809665 40.982975
32.405491 -10.67469 41.433693
35.01881 -0.15850927 40.927612
32.07457 -4.8887849 41.024178
29.502338 -5.9848466 41.273972
21.909914 -8.7966757 40.5368
37.046196 3.5168111 40.660992
11.349867 18.750105 47.884567
29.395555 -5.5152946 41.143005
35.385231 -12.413288 40.820202
30.384943 -3.0070622 41.321796
26.388651 3.2783802 41.480114
35.180927 -3.8822503 40.7892
16.270878 -2.144738 5.4099355
40.015076 4.7234583 40.132866
33.433849 -1.9576198 41.069172
39.391605 -3.0406532 40.51965
39.645283 4.0688481 40.004856
28.268209 -3.1324494 41.441708
35.550396 -6.7848673 41.204109
30.842703 -4.374444 41.445702
25.868071 -13.820437 41.261482
36.558445 -2.0501134 40.451317
38.608135 -14.554298 40.741646
34.461872 2.9608939 40.748936
34.884888 -9.8323107 40.96648
30.923851 -5.5683231 41.161293
31.49798 -5.627625 41.474903
674.30096 -40.602303 849.1355
38.572456 -9.9621649 40.583958
24.922472 -5.1458106 39.004971
26.010687 -8.8905792 42.27084
30.951269 -2.2117758 40.632587
28.681442 -6.8498545 42.532364
38.366879 2.1802025 40.583702
34.151028 -12.882995 41.303825
30.005987 -11.783277 41.845619
32.467663 -1.2080644 41.363205
36.508911 -6.7956028 41.272537
36.074612 4.4950976 40.448372
29.523115 -9.0289335 41.574272
39.848125 -10.747569 40.583973
31.072979 -11.162219 41.305599
33.311859 -11.420716 41.923111
39.529888 -0.72565281 41.159164
30.384943 -3.0070622 41.321796
36.537971 4.551332 40.311695
27.394123 -9.0916834 41.362602
34.219177 -14.936796 41.132183
30.625959 -11.139724 41.111248
27.12809 -7.3234658 41.386147
27.671036 -5.8660226 41.599022
30.384943 -3.0070622 41.321796
35.059483 -11.408577 41.437931
32.467663 -1.2080644 41.363205
32.858017 -1.9316026 40.730263
35.655994 1.7422723 41.049744
26.091978 -5.2018471 41.890427
29.903534 -8.4807014 40.888065
36.074612 4.4950976 40.448372
36.264397 -1.3464949 41.167274
28.429674 -4.8013148 41.490887
28.021921 -12.09637 41.470997
36.314953 -2.6379833 41.175217
38.681866 -0.28545263 40.469662
16.134466 -2.4856808 5.1928382
29.809578 -14.207644 41.510174
29.704714 -1.839751 41.392776
29.704714 -1.839751 41.392776
28.784229 2.6688042 41.304237
35.345047 -4.3449578 41.162369
37.42078 3.1104383 40.572998
27.752205 -10.646439 42.109421
31.279533 -10.958878 41.320396
26.583149 -0.50181395 41.2911
35.132603 1.7289249 40.938492
20.452494 6.6758809 41.644489
28.067074 -6.2440424 41.055824
27.194592 -13.186502 41.44202
35.468575 -3.1970782 40.89397
32.440731 2.5415921 40.84956
27.671036 -5.8660226 41.599022
35.325729 1.3402438 41.325047
31.257704 5.0712867 40.409798
35.953671 -5.063859 41.015732
29.523115 -9.0289335 41.574272
35.953671 -5.063859 41.015732
39.18494 -11.360261 41.252945
37.276039 -4.0006289 41.102215
32.565063 -7.8648214 40.901939
39.553524 -0.017364625 40.702984
35.132603 1.7289249 40.938492
40.912033 1.6172396 40.704605
38.366879 2.1802025 40.583702
32.05019 -8.6688709 41.52039
11.08167 18.9137 48.158405
651.96942 -963.98901 2486.4424
31.69066 -14.098826 41.278728
32.123302 1.5367398 42.872955
16.134466 -2.4856808 5.1928382
39.528744 3.4666011 40.597328
32.539921 0.24060601 41.227974
32.123302 1.5367398 42.872955
26.940323 -8.0126734 42.681046
29.010199 -6.8784142 41.975124
29.993174 -4.5400867 41.622345
29.529005 1.9149804 41.425552
26.538414 -4.2140608 42.059021
28.384142 -6.1025453 41.228607
35.059483 -11.408577 41.437931
1600.771 -1130.0297 2532.0244
24.878387 -12.249865 41.914024
33.581196 -12.644677 41.014977
30.271666 -6.7257566 41.581043
32.071636 -14.624502 41.186478
30.388741 -12.147858 41.311245
27.53466 -7.3368402 41.519291
37.323368 -13.124562 41.276218
36.264397 -1.3464949 41.167274
37.725967 -12.971393 40.66489
30.951269 -2.2117758 40.632587
31.473921 -6.0180807 41.511368
36.30196 -9.8677549 40.780605
27.12809 -7.3234658 41.386147
27.949287 -0.38616598 41.363266
32.071636 -14.624502 41.186478
31.072979 -11.162219 41.305599
27.258514 -0.50868821 41.594929
36.669292 -15.137733 41.31786
38.603813 2.4591148 40.440704
39.583611 4.6835608 40.19244
1680.7601 -2407.3818 6341.1152
30.494635 -4.533381 41.167511
35.192017 1.2889041 41.172333
36.264397 -1.3464949 41.167274
40.186466 0.078540497 40.240814
31.755621 -12.324587 41.286037
29.247986 -13.433951 41.858978
25.883364 -8.30235 41.994484
31.546562 -10.784127 41.381489
40.010281 -11.858575 40.535809
30.949865 -1.6326269 41.365234
27.068008 -4.2806654 41.69939
29.438492 1.5264072 41.243538
28.54562 -11.793128 42.334106
39.11874 -2.5545626 40.724186
30.494635 -4.533381 41.167511
39.709862 -3.7949986 40.129688
37.473862 -4.5245061 40.322685
38.809738 -14.228257 40.770588
14.598136 -1.8363011 2.7478542
34.776939 -4.2875152 40.896503
29.409014 -9.7248135 41.634182
33.009026 -11.686427 41.388512
38.121136 -1.7063508 40.948284
27.804234 -2.3652892 40.763645
36.558445 -2.0501134 40.451317
36.339333 -9.4851294 40.826809
27.924416 -6.1845932 41.689468
31.459677 -11.776716 42.176975
38.352261 -4.6828384 40.799362
33.398582 -4.9175725 40.468048
21.738321 -14.702466 41.70932
38.440712 -13.683103 40.780777
37.910786 -3.280437 40.815281
35.022839 -9.4773579 41.190811
31.167557 -14.519499 41.212563
34.543674 -8.3381958 41.581074
3.004225 -0.00055939809 -20.043175
38.519249 -9.6448669 41.142433
29.482378 -7.813211 41.792881
30.271666 -6.7257566 41.581043
891.11896 -1473.048 3689.8438
32.701935 4.3203535 40.969227
27.215893 -7.7555556 41.809616
33.108494 4.5866737 40.883442
28.409546 -14.486868 41.907188
36.906319 -3.9878204 41.214119
38.568851 -10.575103 40.022896
7.8939767 7.0900235 82.05368
36.264397 -1.3464949 41.167274
24.243179 4.0589309 41.051563
29.247986 -13.433951 41.858978
22.779844 -13.368552 41.890545
36.665245 -0.23819438 40.428036
39.905193 1.6337231 41.49184
36.906319 -3.9878204 41.214119
19.182175 8.3630638 44.656712
32.843475 -2.5038636 41.183594
32.07457 -4.8887849 41.024178
38.328053 -13.374859 41.241058
29.502338 -5.9848466 41.273972
32.48793 -3.3807628 40.938519
20.60449 10.285748 46.882126
34.072666 -6.8553286 41.41444
36.665245 -0.23819438 40.428036
37.333809 -8.6709709 40.524643
22.602915 5.9845715 45.320831
38.294338 -13.788372 41.245605
35.690205 -2.9532545 40.876934
28.113815 5.4369545 41.176556
26.162134 -6.1300983 42.405567
34.424244 0.59795707 41.146614
35.902084 4.7735047 40.636555
30.292702 -12.71422 41.16325
29.395555 -5.5152946 41.143005
32.159622 -13.935447 41.163853
39.583611 4.6835608 40.19244
34.579678 -0.72578335 40.521629
38.440712 -13.683103 40.780777
35.690205 -2.9532545 40.876934
2.2566109 2.5822296 -19.17996
24.380079 18.337812 45.028503
29.059088 1.1893719 41.348869
26.815201 -8.243103 41.566093
28.530451 -14.076963 41.838913
28.162998 -14.064529 41.833664
40.338924 0.34002274 40.600777
35.208885 -13.863644 40.7976
32.440731 2.5415921 40.84956
37.719143 -0.23199444 41.475578
27.686733 -9.6598206 42.306797
28.380318 0.69365484 41.31786
29.903534 -8.4807014 40.888065
39.439274 -2.1671872 41.165714
29.786703 -5.0448446 41.611038
25.710554 -95.109093 250.19322
16.562464 9.5196714 44.997513
31.098921 3.1247759 40.906284
28.750334 -7.6432161 40.815525
18.104876 6.5337582 42.903355
31.442354 -13.595797 41.253258
14.598136 -1.8363011 2.7478542
30.261354 -9.0405064 41.632607
37.664894 2.6766818 40.278927
28.750334 -7.6432161 40.815525
523.98798 -52.311123 661.57446
32.943619 -7.8783917 40.885426
39.528744 3.4666011 40.597328
28.25601 4.0325656 41.166618
28.318895 -13.724275 41.699989
367.90082 -461.76431 1087.2319
40.144165 0.97865009 40.28812
13.205389 -1.3116117 0.5541389
29.903534 -8.4807014 40.888065
40.059105 2.794311 39.317875
28.318895 -13.724275 41.699989
28.067074 -6.2440424 41.055824
36.380127 0.059157968 41.316395
29.241707 4.0322337 41.011539
25.630964 2.6994214 41.559273
19.743086 -13.415807 40.78389
24.225298 2.7947114 41.614769
31.459677 -11.776716 42.176975
27.990417 -10.077815 41.812904
37.138466 -4.8184361 40.601009
32.735577 -6.0392594 41.040676
28.315868 0.96806872 41.672409
6.4787788 0.74499547 -13.554629
38.294338 -13.788372 41.245605
37.726185 -4.7901182 41.07869
31.947424 -3.26161 41.319321
17.716499 7.9764752 43.642513
33.026215 -8.9086447 51.435623
28.228657 1.3361914 41.43824
26.521128 -1.5293335 41.485786
30.393187 -1.842826 39.456921
31.602983 -13.448056 40.651836
40.981926 -3.5827012 39.885319
37.433102 -1.7984283 40.628998
36.776531 -9.9182882 40.879337
28.428764 -6.6819611 41.784962
33.860168 -1.5605686 40.98531
29.409014 -9.7248135 41.634182
26.258492 2.2120652 41.300777
32.061485 4.2250857 41.081848
26.670792 -8.8231611 41.361122
33.208782 -7.5646286 41.344311
27.866596 -14.679044 42.225445
37.444668 -3.0949337 36.778301
30.759445 -14.971316 41.931416
1.4529876 1.3004007 -20.225788
36.32552 -11.271861 40.327099
31.098921 3.1247759 40.906284
30.03146 -12.007421 41.53896
25.50807 -7.1202841 40.984612
26.96583 4.603672 41.455944
35.112183 -11.88789 41.470226
39.905193 1.6337231 41.49184
20.362968 -8.7250261 38.282825
38.289524 -0.85909212 40.224266
37.249161 3.1313517 40.987331
36.796867 4.7797699 40.374737
32.411308 -7.3565164 41.624958
27.481394 -11.102753 41.872025
30.271666 -6.7257566 41.581043
28.539934 -9.9615192 42.449646
16.377523 -0.60734212 5.4386954
16.377523 -0.60734212 5.4386954
33.872742 -10.65012 41.447556
2.1164191 2.5989902 -19.154728
22.711716 4.5447955 39.807331
12.351418 -0.93837553 -1.0517584
28.792629 4.0077415 41.592186
37.503685 2.888032 40.359863
39.838528 -6.9342399 40.814228
17.247128 -2.8643968 12.707183
26.417391 -5.5070653 38.170582
22.779844 -13.368552 41.890545
36.347004 -2.8795989 40.894814
38.196911 -8.3607683 40.91721
30.237984 -5.3517771 41.157486
37.433102 -1.7984283 40.628998
37.111164 -1.8610718 40.262535
39.093304 4.8597407 40.692329
38.191219 -11.438789 40.801121
32.735577 -6.0392594 41.040676
27.373499 2.4470537 41.68824
16.246414 -3.06319 6.0881515
48.395142 -14.629482 53.388012
20.288733 -12.289529 40.9063
2.0288472 1.8266417 -19.272102
39.469948 -3.1977749 40.308521
1.2559489 0.79216844 -20.475529
35.0453 -13.837653 41.348484
13.388696 -1.5788485 1.6221464
34.064651 -12.001165 41.222664
31.363091 -4.21099 40.817707
28.169605 -10.433295 41.733181
-12.036521 10.504206 -45.931782
38.461941 -9.9825048 40.991581
37.726185 -4.7901182 41.07869
32.440731 2.5415921 40.84956
22.539083 -0.66279632 55.575489
29.041546 -3.4286666 41.602192
28.923391 -16.395538 44.343464
29.421486 -12.727015 41.604816
6.4723606 0.91646063 -12.02387
565.42108 -74.596542 707.03741
3.5514576 2.6475296 -20.704
30.421038 -4.7778478 41.223759
31.64558 -6.941977 41.638702
27.35096 3.1875303 41.189259
31.279533 -10.958878 41.320396
16.576847 -0.6212064 5.6371288
39.192871 -6.8091507 40.935024
36.52203 -3.2009592 40.878021
27.429968 -15.18581 43.4543
5.4832273 0.57938308 -13.792587
26.193344 -0.49271235 41.37426
33.372852 -8.2586908 40.723854
31.478313 -10.102808 41.192757
28.086311 -7.2665014 42.469421
29.336222 4.3187861 41.837383
32.3745 -7.2622337 40.898163
30.152931 -4.3061285 41.645889
29.421486 -12.727015 41.604816
36.423611 -3.7047906 41.344597
53.609055 -13.250403 76.637222
36.997608 -8.7027578 40.785072
29.993484 -12.364147 41.638828
29.077501 -2.4458873 41.661209
7.40729 0.16516684 -10.565495
37.726185 -4.7901182 41.07869
29.685282 -8.0135345 41.859001
32.478363 -6.6831536 41.021347
31.378069 -14.196938 41.186226
31.920931 0.22863249 41.205448
34.09687 -1.7683715 40.984211
29.303404 1.363179 41.489964
20.68047 -12.596108 41.02417
34.072666 -6.8553286 41.41444
28.700087 -6.3589716 41.051792
35.384457 -14.471775 41.256485
38.339287 -1.0996804 40.647083
31.454645 -13.68354 40.80101
32.336411 -9.2377062 40.570633
34.795036 -13.588388 41.260769
27.502483 -0.34732375 41.453327
7.2441797 0.074998461 -10.857049
15.902523 -2.3667693 4.7486324
26.417391 -5.5070653 38.170582
17.824558 -1.0961201 32.45351
32.336411 -9.2377062 40.570633
30.909098 3.1602046 41.222908
32.874817 3.8528745 40.505215
37.507862 -10.703737 40.915321
1915.7078 -1229.1166 3255.5833
28.681442 -6.8498545 42.532364
27.028101 -1.198604 41.474712
2.6358156 1.0282751 -20.898458
38.010548 -8.4045095 41.228973
19.516336 -1.163208 11.209573
16.253044 -2.4615507 5.4287348
37.216072 -5.030375 40.029068
601.13104 -106.41364 752.0141
12.706507 -1.0209482 -0.35681412
37.677338 -1.3339245 40.794743
34.927559 -13.233752 41.424812
31.363091 -4.21099 40.817707
32.78672 -3.5893011 41.233253
40.253597 -3.5984666 40.704327
39.461967 -12.648595 40.779484
19.289139 -3.1733835 10.102125
35.964993 0.31850588 40.877647
20.797171 -8.8371487 38.569618
7.6903133 0.77286237 -10.669389
36.245258 -6.3435936 40.668819
39.643108 3.6958485 40.439648
40.208607 -10.335532 41.038719
8.1462994 -0.11022185 -9.2964907
40.07653 -9.0616713 50.37524
28.925482 4.4700651 40.869305
33.009026 -11.686427 41.388512
31.858675 -10.367076 41.257206
39.709297 -13.948715 40.651276
26.670792 -8.8231611 41.361122
18.316296 7.9036217 42.787594
29.042915 -0.37945488 40.582348
278.5372 -543.52405 1288.157
15.573853 -3.6764762 5.8437533
3.0788167 0.95833099 -17.3456
28.891289 -10.926249 40.664268
37.153057 3.4526994 40.034378
37.06477 -12.06263 41.274574
14.163524 -0.66756898 2.9231994
8.236084 0.79672259 -9.3402519
20.474373 6.2192259 42.715565
565.42108 -74.596542 707.03741
33.678616 -12.187843 40.952717
26.467363 -4.8190589 41.638226
37.367817 -4.5609984 40.95755
33.330593 -12.191111 41.175179
18.641035 -1.9835434 10.918814
39.615143 -6.7215204 41.171848
36.771923 -12.990754 40.900269
30.25948 -5.7778888 39.67276
35.677742 -0.16062033 41.284996
16.927221 -2.2570937 6.5422215
39.64975 0.20256878 40.4338
39.606842 0.69810814 40.32946
20.931713 2.5838499 43.131172
38.325916 -0.29171202 36.999966
2.6358156 1.0282751 -20.898458
28.539085 0.6809665 40.982975
19.125525 6.4395003 43.546505
523.98798 -52.311123 661.57446
27.89776 -9.8441124 42.084156
77.538116 -21.210865 97.272903
15.954819 -0.4858135 6.2113371
35.959843 -10.828034 40.906239
20.334984 -9.5398903 39.282043
-74.913589 280.82239 -1045.3462
20.532869 -4.4869423 13.52524
8.1462994 -0.11022185 -9.2964907
29.813061 -7.9594808 41.423912
37.67738 -9.463273 41.889332
35.124344 -4.684989 36.34988
25.976604 5.1230965 41.62479
35.894829 3.9566662 39.633629
38.568851 -10.575103 40.022896
566.24133 -58.291126 726.55371
1680.7601 -2407.3818 6341.1152
28.017653 -7.0926833 41.112411
38.993221 -17.197803 66.521561
30.673546 -11.559101 41.343151
15.373478 -2.0763364 5.1659074
40.698063 0.34198412 40.683121
31.858675 -10.367076 41.257206
28.081425 -6.88695 41.651077
13.206903 -1.0533239 0.52978003
31.262138 -9.8793077 41.190334
33.656994 -1.7615641 41.045849
39.897907 -0.53234148 49.106991
33.207882 -6.470161 42.605221
31.867474 1.4728277 41.485851
14.646778 -2.4447086 5.3782568
36.209579 -7.595212 40.417889
30.293423 2.8386786 41.33474
15.462165 -2.004421 5.1772099
31.858675 -10.367076 41.257206
30.741898 3.1424539 42.151695
33.207882 -6.470161 42.605221
36.605492 -6.1844358 40.9491
36.605492 -6.1844358 40.9491
6.2641191 -0.84924859 -13.613691
-18.410854 7.0586834 -56.963428
28.68391 -3.0561006 41.542946
38.699795 -11.490491 40.934158
34.415096 4.7728887 39.39336
39.371986 -2.7980664 40.710217
29.640442 -8.4748669 41.659351
15.175116 8.0861435 45.98595
40.172314 -14.924984 41.948437
26.160646 -12.032198 41.389038
14.712816 -1.864207 2.8718185
43.872982 1.1581725 160.22858
13.7403 -1.110906 1.2343546
34.590019 -5.4986444 41.205231
32.478184 -3.1577964 41.153957
28.428764 -6.6819611 41.784962
15.384214 -1.1213821 5.7369699
36.209579 -7.595212 40.417889
44.735241 -11.855443 50.721577
31.002054 -4.6478286 42.308331
33.233521 -11.740226 40.804394
-20.797518 7.1648684 -60.772385
2.0385702 0.60582507 -20.359245
13.7403 -1.110906 1.2343546
40.764896 -2.2210679 40.804348
26.545036 -8.6016798 41.923481
37.675362 -6.9938765 40.846436
28.524446 -2.9476764 42.043346
20.287529 6.718811 42.810169
27.028101 -1.198604 41.474712
40.085194 -3.6997113 41.120216
31.755621 -12.324587 41.286037
38.61462 -3.9717226 39.994823
13.550269 -0.32765886 1.7769326
31.618965 -0.03216378 41.987221
37.488342 -5.5806551 40.631161
3.0424769 1.6723514 -17.484732
36.509686 -12.418946 40.394279
1174.6012 -764.98187 1782.8236
5.4367661 1.3444419 -14.752562
13.76472 -1.6963723 1.4595716
32.753677 -5.9466562 40.258896
39.18494 -11.360261 41.252945
-974.7962 1329.7695 -3113.5657
38.911358 -15.137667 41.351971
32.030952 -11.059354 41.733154
-8.4605408 3.3433511 -45.187687
12.351418 -0.93837553 -1.0517584
40.218929 2.2646689 40.473076
16.594856 -0.93116361 5.8581529
36.165497 0.44869527 41.017586
31.259192 -1.8662506 41.465809
9.3289108 -0.35752916 -7.1930943
14.281674 -1.7801212 2.6599355
15.147551 -2.3184793 4.7068076
14.72717 -1.3077476 3.361702
35.224339 7.1792903 42.118938
27.89776 -9.8441124 42.084156
11.08167 18.9137 48.158405
40.140877 -10.583253 41.279701
45.760796 -1.7099175 44.277313
29.977114 -10.384274 41.384682
26.725683 2.9405689 41.090023
20.997749 -5.6115279 43.781391
20.581751 1.8144258 41.799034
13.75432 -1.468794 2.7227385
27.924416 -6.1845932 41.689468
30.25948 -5.7778888 39.67276
37.153057 3.4526994 40.034378
8.7624578 -0.062734038 -8.3097467
18.522184 7.70648 43.954769
40.647156 5.1507535 39.090309
32.990536 -0.55143309 40.951572
528.20074 -57.0294 658.57391
11.080019 18.843725 47.933426
20.610056 -15.080155 42.086185
34.590019 -5.4986444 41.205231
18.059082 -2.1416883 8.3703794
34.195179 -13.032393 40.80196
40.637043 4.1170073 40.14249
35.766624 -13.732261 40.695484
38.000031 -12.563321 41.053795
26.354805 -5.053791 41.578548
14.163524 -0.66756898 2.9231994
14.755903 -2.2918308 4.6724029
6.4723606 0.91646063 -12.02387
26.441467 -5.5505457 38.107544
6.7888403 0.65339893 -13.53333
15.514913 -1.6369773 5.2779765
34.404903 -3.0278034 38.009819
27.362827 2.2349696 41.480183
30.119379 -12.963391 42.196327
35.331299 -10.399813 41.017017
39.909111 -11.11375 40.774532
14.749933 -2.6239345 5.4868298
31.822336 1.2604874 40.983341
31.716135 -7.0343418 41.170803
28.852697 -2.8130627 41.419346
31.716135 -7.0343418 41.170803
36.511494 -2.6276171 40.692707
-974.7962 1329.7695 -3113.5657
18.180882 8.9677734 43.633636
30.305338 -5.4535565 42.164909
29.763239 -1.6116728 41.095825
26.312168 2.8200343 41.339291
26.431139 -3.1395788 21.214521
19.743086 -13.415807 40.78389
13.955263 -1.601782 1.7678578
19.031029 -13.868057 39.582474
37.384083 -12.880838 41.022835
20.831839 -15.291627 42.271065
42.163425 -10.045516 39.773907
3.1105719 0.76704192 -21.108675
12.809242 -0.26063952 -0.1799968
20.147362 7.075716 42.674946
26.441467 -5.5505457 38.107544
41.950657 0.22958992 40.932621
35.856602 1.0888591 39.985512
1142.3881 -74.200508 1437.3922
15.645262 -1.2935612 5.7048688
12.93735 -1.6991735 0.82596874
14.167389 8.1108818 57.150566
1.4348104 -0.60835922 -20.279289
44.735241 -11.855443 50.721577
35.077789 -13.997024 40.371979
37.029423 1.6582632 47.769814
17.864141 6.8492451 44.023529
-378.2821 230.03564 -612.64288
4.1624589 2.8170722 -21.062286
12.743619 -1.2003076 -0.20168401
19.31815 -4.6036339 13.945499
15.066108 -2.7970183 5.522604
33.346531 -12.794469 41.413738
25.982325 -1.4933928 41.077595
21.992868 -9.1080179 41.585648
34.711922 1.9734075 40.60268
36.165497 0.44869527 41.017586
37.372658 -12.5665 40.718727
39.469948 -3.1977749 40.308521
15.184299 -2.1143661 5.520824
6.5861917 -0.4557223 -12.991062
31.826553 4.5005322 40.541233
32.589706 -9.7428112 41.144436
238.67125 -93.943275 463.90414
28.482473 -13.481393 41.490791
1.9866536 -0.7647242 -19.011431
16.217518 -1.4115255 6.0089159
19.184532 -13.855353 40.88102
2240.3711 -7350.6392 27195.643
28.60582 1.1712511 41.780762
12.738862 -1.3346567 -0.22134705
22.331322 1.7721958 38.212482
16.82954 -3.320785 11.330287
39.347942 -14.998798 39.19762
-53.998249 22.331472 -131.67317
18.98053 -14.368912 40.624199
14.671301 -1.3009673 5.2718978
34.70435 2.3733771 40.809704
13.3169 -2.3119614 1.5721778
34.327747 2.4576461 40.740704
36.188385 -11.161889 41.137691
38.017399 0.46255872 40.596272
37.421902 -8.3883581 41.332699
19.83217 2.3584683 42.373028
30.057423 -8.3618946 41.486176
5.3614125 0.45330068 -14.783072
34.404903 -3.0278034 38.009819
37.385563 -5.3243093 40.748432
40.172314 -14.924984 41.948437
53.127708 -16.361921 76.225906
181.6385 -330.1105 802.28131
19.31815 -4.6036339 13.945499
37.111164 -1.8610718 40.262535
28.511757 -10.788863 42.053577
40.144737 3.6219423 39.94249
13.786667 -0.34024954 1.3458114
20.061453 -3.8173616 14.030476
12.674189 -0.94815367 -0.29926261
3.6224041 -0.33175471 -19.981739
12.773548 -1.3603977 -0.18581557
32.554695 3.9872348 41.254494
1.4348104 -0.60835922 -20.279289
2.2556853 0.75741172 -20.306776
37.681446 -1.3033611 40.166126
121.24185 33.561619 1196.338
35.140152 7.7562399 36.702919
31.106922 -7.6169972 48.71764
38.496059 -1.7873545 40.909714
33.429832 -11.6933 40.312019
36.043533 -7.0250072 41.555538
14.320215 -0.66868055 3.1018379
5.428308 1.8515608 -16.328379
9.323555 -0.35399121 -7.2091608
36.165497 0.44869527 41.017586
1142.3881 -74.200508 1437.3922
27.593746 -10.179993 41.618919
3.9883227 1.7423393 -19.39296
21.246456 -10.259784 39.967823
6.7260952 0.48671418 -12.904034
13.541929 -1.5933722 1.6571776
14.714892 -0.47444916 2.8431091
21.619371 -8.1233673 38.065609
19.033413 -0.83709061 9.4214678
16.555851 -3.0760212 6.0305796
35.951614 -6.8794603 41.143318
19.033413 -0.83709061 9.4214678
17.209354 -1.868577 9.3589697
34.633598 3.0877752 39.789589
601.13104 -106.41364 752.0141
20.334984 -9.5398903 39.282043
12.809242 -0.26063952 -0.1799968
37.245964 3.2464848 37.779285
14.342755 -1.7502261 3.4017038
26.244162 -2.7014098 16.393417
13.074125 -0.99882942 0.15933391
42.700085 -11.386531 43.174881
14.798485 -0.75953835 2.8760121
44.970783 -4.2174168 71.158943
1.9866536 -0.7647242 -19.011431
14.156044 -1.8030761 3.0534449
34.27227 -4.6659775 42.117706
37.296757 -9.0529957 40.670551
9.0548563 -0.0085601956 -7.7740879
37.309605 -12.426105 41.195896
50.907459 -13.011271 65.723289
7.6178508 0.89531589 -10.714828
26.160646 -12.032198 41.389038
31.262138 -9.8793077 41.190334
3.233551 1.7192069 -18.425922
37.923355 -4.7151346 40.580196
33.099041 4.7410789 39.196697
34.8507 -6.2946687 36.210522
16.564299 -2.6587951 5.9904232
31.518209 -10.478129 48.033455
14.320215 -0.66868055 3.1018379
13.108015 -0.59233129 0.62542576
26.244162 -2.7014098 16.393417
9.0548563 -0.0085601956 -7.7740879
15.927028 -1.6497693 5.2137542
37.928169 -5.4138775 40.954689
21.233505 9.5403938 43.130768
39.659359 -7.4564228 41.029083
-49531.812 33027.168 -87809.5
19.189779 -10.945701 38.597767
25.716505 -12.211823 42.0009
15.889391 -1.3521969 6.048656
34.899761 -14.350902 41.187157
11.892001 8.0892239 69.180687
-7.0555429 0.72462845 -35.994545
20.172188 5.3438292 41.536716
37.629406 -12.330331 40.918789
36.191967 0.86356509 40.343708
-33.091309 162.93661 -626.98267
38.885632 -6.4567304 40.429642
22.782852 7.4276886 38.127525
35.313255 -2.7319427 39.980659
37.112373 -0.28344488 37.074333
37.219978 -12.672159 41.09026
4.146801 -4.061481 -42.436798
32.030952 -11.059354 41.733154
13.283851 -1.5819962 1.6164351
38.509167 1.5824995 47.149925
-11.404613 -0.59781611 -40.679466
16.149818 -0.36441123 6.5202584
11.081677 -0.76845682 -2.5017219
34.27227 -4.6659775 42.117706
25.898104 -11.789586 41.993958
7.7110147 -0.82574654 -10.381698
18.426826 -3.5531626 12.342607
34.711922 1.9734075 40.60268
801.50067 -57.485119 1013.0804
-1055.6616 698.31921 -1614.6178
39.615143 -6.7215204 41.171848
10.115217 -0.54022747 -5.4578986
12.092957 -0.65476328 -1.5379503
1.9689792 -0.78857446 -20.299458
14.540584 -1.6456846 3.7895446
22.638981 -16.203424 42.457943
22.539083 -0.66279632 55.575489
38.809738 -14.228257 40.770588
37.5509 -9.0490627 41.474655
20.782795 -2.3806131 12.231364
27.686733 -9.6598206 42.306797
59.034527 -18.167841 73.521187
20.573856 2.3623626 43.126091
13.69124 -1.2146842 1.2385759
14.714204 -2.0787103 5.2692285
82.866333 -16.414356 128.91237
-7.0555429 0.72462845 -35.994545
7.5342174 -0.63131094 -10.683372
15.595872 -0.74260658 5.8736243
36.230141 0.0098136663 39.919254
33.812805 -0.75023872 41.070976
35.208885 -13.863644 40.7976
48.926205 -7.7449689 47.758644
39.50737 -9.2937183 36.121868
6.9200826 -0.1479166 -12.372211
9.0200157 0.18944801 -7.867301
13.705626 -1.86675 1.3354621
15.889391 -1.3521969 6.048656
8.3220215 0.027504466 -9.2811308
47.186146 15.798632 45.86755
7.9008079 1.3216915 -10.931016
42.609905 -7.7798381 51.189804
33.823368 -1.059116 40.861259
17.254665 -0.41403392 7.7153368
20.259928 2.3004024 53.071541
18.920427 -8.0209951 35.568016
36.043533 -7.0250072 41.555538
-10.310542 -3.9042165 -53.10025
16.696947 -4.127162 9.8309174
35.86607 4.0227265 40.55022
-1694.8254 404.62097 -2286.9841
30.661615 2.5012877 41.111057
21.379637 -0.76452333 49.888386
-13.722335 89.759567 -349.78619
0.70088381 6.4562683 52.478672
22.656244 -9.7846003 22.059822
34.775578 -1.3362057 40.987858
13.08338 -1.5338711 0.68327546
32.876869 0.1539351 40.965931
26.326452 -2.8539634 16.505678
13.210091 -1.1798471 0.58806109
34.322971 -7.0627556 36.943424
55.931488 -281.79993 753.85168
35.169865 7.91535 35.433666
6.0160532 1.9877102 -13.616922
-16.817663 2.6365144 -52.351555
24.393349 -8.3308678 37.783939
7.5630932 0.74263394 -10.815282
18.920427 -8.0209951 35.568016
20.491451 -12.528605 41.829742
21.379637 -0.76452333 49.888386
5.3416662 -0.038246434 -14.387814
17.149101 -0.43714219 11.523577
8.4706078 0.69646001 -9.3252106
21.740425 -2.4809711 15.190098
21.938982 0.34887198 20.217144
22.471457 2.3140435 44.69434
33.258999 -4.3673649 40.566433
37.216072 -5.030375 40.029068
24.513386 4.082478 45.777569
33.928951 -9.0729141 41.442165
31.727596 -10.301261 41.247719
4.3850775 1.3703594 -16.26181
39.078655 -10.390968 40.37183
34.098629 -0.76954305 38.025791
2872.2234 -11156.469 39412.707
21.073193 -0.53997082 13.374313
26.816183 -12.743689 41.413498
34.8507 -6.2946687 36.210522
15.329473 -2.2709095 5.5075469
13.408516 -0.72865152 1.3952571
-12.619321 3.2707999 -56.098465
22.281363 1.1253021 38.151615
13.366796 0.43557566 9.8450851
18.08219 -5.1817951 45.582047
23.705158 -8.4818573 35.39283
16.130085 -1.4458996 5.9330072
20.712772 -2.5287838 11.497694
-18.459585 8.9412298 -64.079285
-1086.2076 670.19501 -1666.7848
44.312962 12.428985 44.848389
32.128109 -2.8819177 37.027771
27.154234 -4.7750463 43.068172
28.928011 -2.8110888 37.863281
-372.36542 224.99178 -570.61749
34.098629 -0.76954305 38.025791
13.359415 -1.1782492 1.0119214
17.999229 -5.1338611 45.043839
14.669436 -1.5206828 3.2163579
16.187458 7.9373579 53.121849
24.24395 -91.000702 216.78674
20.712772 -2.5287838 11.497694
10.456227 -1.2094215 -5.3511181
4258.7437 257.1308 6954.9463
-139.14651 464.81964 -2027.8527
22.260988 -9.4897661 21.220572
35.28791 -1.3170638 39.5802
23.228823 4.2569137 43.239147
19.924944 5.7253675 42.980766
21.073193 -0.53997082 13.374313
17.102697 8.6043739 55.578648
44.538826 -3.5916488 41.976875
