# .PCD v0.7 - Point Cloud Data file format
VERSION 0.7
FIELDS x y z rgb
SIZE 4 4 4 4
TYPE F F F U
COUNT 1 1 1 1
WIDTH 218
HEIGHT 1
VIEWPOINT 0 0 0 1 0 0 0
POINTS 218
DATA ascii
19.654907 -0.12984541 5.1318102 4294078160
18.755861 -0.15168914 4.8204117 4294078160
18.429842 -0.18344495 4.7082539 4294078160
18.406618 -0.22407041 4.7018247 4294078160
18.463829 -0.2683458 4.7238827 4294078160
18.650261 -0.32024473 4.7915387 4294078160
18.889917 -0.37798864 4.8784008 4294078160
19.254303 -0.44656464 5.0094833 4294078160
19.759821 -0.5289253 5.1907616 4294078160
20.260624 -0.62050503 5.3707962 4294078160
20.663122 -0.71163845 5.5162239 4294078160
20.457937 -0.87630296 5.4510746 4294078160
20.737932 -0.9638018 5.5528827 4294078160
20.804398 -1.3305085 5.5891266 4294078160
20.762333 0.2865912 5.4605637 4294078160
20.118847 0.22061282 5.2397552 4294078160
20.725216 0.10708884 5.4534025 4294078160
19.910904 0.054934524 5.17307 4294078160
18.89761 0.016733047 4.8234124 4294078160
18.534283 -0.022783896 4.6987586 4294078160
18.255487 -0.05970699 4.6032753 4294078160
18.072687 -0.095827781 4.5409231 4294078160
17.971598 -0.13252127 4.5069237 4294078160
17.902439 -0.16896151 4.484128 4294078160
17.909863 -0.20784396 4.487967 4294078160
18.321487 -0.26940995 4.6314068 4294078160
18.564558 -0.32469159 4.7171044 4294078160
18.880104 -0.38718471 4.8282099 4294078160
19.292747 -0.46004653 4.97328 4294078160
19.820631 -0.54661924 5.158607 4294078160
20.44655 -0.64727873 5.3783612 4294078160
20.917997 0.23049423 5.4541664 4294078160
17.410069 0.14921279 4.2693071 4294078160
17.616697 0.11065146 4.3405538 4294078160
19.011765 0.059303906 4.8160648 4294078160
18.60918 0.016893405 4.6802068 4294078160
18.256819 -0.021390712 4.5613742 4294078160
17.989397 -0.057212014 4.471303 4294078160
17.799896 -0.091926366 4.407701 4294078160
17.646727 -0.1253207 4.3565207 4294078160
17.571718 -0.15981913 4.3319831 4294078160
17.585936 -0.19734906 4.3379002 4294078160
17.711977 -0.24078251 4.3819957 4294078160
17.951155 -0.29222363 4.4647813 4294078160
18.268625 -0.35120684 4.5745425 4294078160
18.69125 -0.42113113 4.7204571 4294078160
19.241583 -0.50585002 4.9102039 4294078160
19.896629 -0.60553443 5.136097 4294078160
20.653051 -0.72220552 5.3969498 4294078160
20.67984 0.2241745 5.3184571 4294078160
20.072414 0.15794724 5.1220102 4294078160
20.330421 0.10609994 5.2058105 4294078160
18.395191 0.015350823 4.5660119 4294078160
17.89567 -0.018359071 4.3996854 4294078160
17.555387 -0.050375413 4.2868161 4294078160
17.322586 -0.081294179 4.2097583 4294078160
17.134743 -0.11068382 4.1477695 4294078160
17.030611 -0.14099242 4.1138024 4294078160
17.021103 -0.1742349 4.1115608 4294078160
17.124189 -0.21310477 4.1471 4294078160
17.353868 -0.26051092 4.2251544 4294078160
17.669653 -0.31582603 4.3323498 4294078160
18.104898 -0.38307664 4.4798746 4294078160
18.676586 -0.46588272 4.6734414 4294078160
19.371784 -0.56551808 4.9088383 4294078160
20.183418 -0.68387389 5.1836896 4294078160
20.491514 0.21880729 5.2019506 4294078160
20.596302 0.1605951 5.2388105 4294078160
20.089218 0.10310972 5.073698 4294078160
19.461329 0.052442875 4.8692408 4294078160
16.815475 0.029704923 4.0098791 4294078160
16.900312 -0.0048925164 4.0365357 4294078160
16.639065 -0.032423336 3.9508398 4294078160
16.865856 -0.07099653 4.0242949 4294078160
16.637802 -0.096311979 3.9500923 4294078160
16.501518 -0.12240345 3.906045 4294078160
16.464161 -0.15123625 3.8945696 4294078160
16.543644 -0.18556485 3.921608 4294078160
16.756693 -0.22852708 3.992712 4294078160
17.070877 -0.2801654 4.0973959 4294078160
17.522041 -0.34496093 4.2474761 4294078160
18.126768 -0.42680189 4.4484487 4294078160
18.873411 -0.52739805 4.6966071 4294078160
19.758266 -0.64923948 4.9907298 4294078160
20.760021 -0.79263824 5.3239374 4294078160
20.387314 0.21432979 5.1154046 4294078160
20.603682 0.15839949 5.1861091 4294078160
19.939793 0.10052235 4.9739313 4294078160
19.238489 0.051045101 4.7495813 4294078160
18.625952 0.0091888662 4.5534821 4294078160
18.135796 -0.027206255 4.3964367 4294078160
17.641996 -0.057413995 4.2382631 4294078160
16.16164 -0.055775691 3.7666857 4294078160
16.053446 -0.078195691 3.7303016 4294078160
15.981947 -0.10393381 3.7077014 4294078160
15.91556 -0.12837401 3.6869354 4294078160
15.974417 -0.15840039 3.7066979 4294078160
16.162037 -0.19642846 3.7682245 4294078160
16.474741 -0.24439743 3.8704607 4294078160
16.947569 -0.30715388 4.0247698 4294078160
17.596682 -0.38895628 4.2364316 4294078160
18.410059 -0.49188283 4.5017071 4294078160
19.38447 -0.61885196 4.8195596 4294078160
20.496031 -0.7704199 5.1823916 4294078160
20.621323 0.15645805 5.1368876 4294078160
19.887924 0.098342955 4.9067273 4294078160
19.113871 0.049471706 4.6635585 4294078160
18.41169 0.0092660682 4.4427938 4294078160
17.816029 -0.02414389 4.2553549 4294078160
17.255369 -0.050987519 4.0788889 4294078160
16.806791 -0.074132301 3.9376471 4294078160
14.78428 -0.035612371 3.3027906 4294078160
14.941094 -0.062465534 3.3515918 4294078160
15.185549 -0.095581353 3.428611 4294078160
15.403165 -0.13083993 3.4979713 4294078160
15.571713 -0.16433518 3.5522175 4294078160
15.880416 -0.2084652 3.6512389 4294078160
16.38271 -0.26973802 3.812005 4294078160
17.091669 -0.35275209 4.0387483 4294078160
17.993382 -0.45993605 4.3272347 4294078160
19.086042 -0.59488142 4.6768951 4294078160
20.339626 -0.75813639 5.0783267 4294078160
20.799524 0.1559629 5.1370592 4294078160
19.951834 0.096599437 4.8760018 4294078160
19.093565 0.047698729 4.6113534 4294078160
18.290678 0.008637852 4.3635817 4294078160
17.584146 -0.022255993 4.1453409 4294078160
16.944529 -0.04599493 3.947639 4294078160
16.393986 -0.064406678 3.7773852 4294078160
15.976191 -0.080632225 3.6481314 4294078160
15.601801 -0.093280494 3.5324895 4294078160
14.475052 -0.065144777 3.1856632 4294078160
14.725048 -0.09683536 3.2630765 4294078160
14.973608 -0.13146551 3.3408754 4294078160
15.285995 -0.17223071 3.4391136 4294078160
15.832778 -0.23309682 3.6106653 4294078160
16.626205 -0.3193343 3.8594556 4294078160
17.644684 -0.43330798 4.1790285 4294078160
18.897522 -0.58038807 4.5722046 4294078160
20.33963 -0.76056033 5.0250192 4294078160
20.194605 0.095383108 4.8987651 4294078160
19.213116 0.045565102 4.6019039 4294078160
18.291233 0.007009753 4.322803 4294078160
17.47279 -0.022083489 4.0747457 4294078160
16.719038 -0.042633925 3.8461101 4294078160
16.075998 -0.057130828 3.6508858 4294078160
15.53499 -0.067222573 3.4865685 4294078160
15.110786 -0.075304821 3.3577495 4294078160
14.857382 -0.086015202 3.2808962 4294078160
14.804212 -0.10401262 3.2651012 4294078160
14.190072 -0.082574114 3.0789371 4294078160
14.87294 -0.14620899 3.288878 4294078160
15.330945 -0.19971357 3.4305382 4294078160
16.218861 -0.29010591 3.7035522 4294078160
17.403173 -0.41519636 4.0679269 4294078160
18.885195 -0.58119458 4.5239005 4294078160
20.582592 -0.7856279 5.0464392 4294078160
20.60791 0.09468469 4.9695401 4294078160
19.495966 0.042975657 4.6397862 4294078160
18.473049 0.0037568421 4.3360586 4294078160
17.523695 -0.024309738 4.0538874 4294078160
16.638231 -0.042250514 3.7904406 4294078160
15.838075 -0.051812548 3.5521722 4294078160
15.150557 -0.05544604 3.3472974 4294078160
14.601556 -0.056191612 3.1836371 4294078160
14.233077 -0.05849484 3.0738261 4294078160
14.106873 -0.068920776 3.0363905 4294078160
14.25009 -0.093426161 3.0796509 4294078160
14.692381 -0.13875137 3.2126684 4294078160
14.674723 -0.16070215 3.2094011 4294078160
16.055361 -0.28509411 3.6227887 4294078160
17.384745 -0.41645518 4.0261149 4294078160
19.156771 -0.60770297 4.5607495 4294078160
20.080641 0.039293565 4.762393 4294078160
18.914955 -0.0019402455 4.4231668 4294078160
17.793125 -0.029824752 4.0963688 4294078160
16.725153 -0.045298662 3.7849054 4294078160
15.75109 -0.050470125 3.5005221 4294078160
14.874246 -0.047076706 3.2443194 4294078160
14.153947 -0.039247464 3.0337069 4294078160
13.637009 -0.031957109 2.8825235 4294078160
13.422417 -0.034186028 2.8197887 4294078160
13.512447 -0.051310748 2.8465407 4294078160
14.030974 -0.097060017 2.9991837 4294078160
15.038591 -0.18429518 3.2954545 4294078160
15.919954 -0.27711636 3.5542064 4294078160
17.885664 -0.46485594 4.1333404 4294078160
19.397373 -0.63703263 4.5814428 4294078160
19.753166 -0.011485445 4.6185145 4294078160
18.450991 -0.041428901 4.2469087 4294078160
17.136988 -0.055312462 3.8715079 4294078160
15.960545 -0.057242546 3.5349011 4294078160
14.800589 -0.04536498 3.2028189 4294078160
13.823455 -0.026726153 2.9227924 4294078160
13.123366 -0.0089845173 2.7219543 4294078160
12.726951 0.0015779504 2.6082819 4294078160
13.008735 -0.023274628 2.6888344 4294078160
13.828496 -0.085571982 2.9244981 4294078160
14.896158 -0.17643948 3.2323568 4294078160
15.935352 -0.27946818 3.5320337 4294078160
17.444075 -0.43290889 3.967262 4294078160
18.760201 -0.5839541 4.353229 4294078160
20.431091 -0.074800558 4.7590976 4294078160
18.927305 -0.096330725 4.3385067 4294078160
17.214388 -0.093643636 3.8591413 4294078160
15.610995 -0.074005716 3.4097228 4294078160
19.466095 -0.26253286 4.4844918 4294078160
13.868931 -0.046136793 2.9191492 4294078160
11.989356 0.03975689 2.3932228 4294078160
12.162638 0.0264441 2.4420729 4294078160
13.323993 -0.053630322 2.7689373 4294078160
14.945107 -0.18172568 3.225863 4294078160
17.171612 -0.37549505 3.8540246 4294078160
19.926258 -0.63974589 4.6321378 4294078160
18.607008 -1.0498327 4.1028137 4294078160
18.704386 0.28673333 4.0442643 4294078160
17.806007 -1.5378945 3.5222731 4294078160
20.291523 -2.1323888 3.9477689 4294078160
