# .PCD v0.7 - Point Cloud Data file format
VERSION 0.7
FIELDS x y z rgb
SIZE 4 4 4 4
TYPE F F F U
COUNT 1 1 1 1
WIDTH 1133
HEIGHT 1
VIEWPOINT 0 0 0 1 0 0 0
POINTS 1133
DATA ascii
3.9081171 0.18743266 2.3410892 4290822336
3.9225433 0.1734923 2.3419735 4293190884
3.9256246 0.15897268 2.3421698 4293256677
3.9299767 0.14447697 2.3424714 4293190884
3.9349639 0.12996991 2.3428242 4293125091
3.9396992 0.11541849 2.3431487 4293059298
3.9438806 0.10081761 2.3434231 4293059298
3.9480195 0.086184867 2.3436868 4292927712
3.9521689 0.071521737 2.3439429 4292861919
3.9565732 0.056831639 2.3442123 4292796126
3.9598558 0.042096701 2.3443847 4292796126
3.9624653 0.027332302 2.3445058 4292861919
3.9638824 0.012544825 2.3445189 4292861919
3.9661677 -0.0022551122 2.3446422 4292730333
3.9695983 -0.01707197 2.3447375 4292072403
3.9739966 -0.031925958 2.3450105 4290164406
3.993432 -0.046965297 2.3459735 4288716960
4.0000415 -0.061969116 2.3462789 4289045925
4.0038924 -0.076972231 2.34642 4289703855
4.0056915 -0.091958307 2.346417 4289967027
3.9400227 -0.10516793 2.3408554 4290559164
3.8436341 -0.11708412 2.3359149 4291480266
3.8474841 -0.13161594 2.3374074 4292072403
3.8504498 -0.14610532 2.3379035 4291480266
3.8522627 -0.16056105 2.3381116 4291282887
3.8540578 -0.17502953 2.3383183 4291348680
3.8558581 -0.1895124 2.3385429 4291414473
3.8577397 -0.20401309 2.3387766 4291480266
3.8599398 -0.21854743 2.3390746 4291546059
3.8628244 -0.23314258 2.3395066 4291546059
3.865392 -0.24773712 2.3398666 4291546059
3.868283 -0.26237315 2.3402627 4291546059
3.871649 -0.27706549 2.340718 4291546059
3.8875089 -0.29274896 2.3428693 4291611852
3.9291208 -0.31061104 2.3478599 4292072403
3.9463377 -0.3267214 2.349685 4293059298
3.9526722 -0.34200838 2.3503058 4293651435
3.9644601 -0.35784197 2.3515728 4293717228
3.9724109 -0.37339744 2.3523731 4293651435
3.9790416 -0.38889199 2.3532553 4293519849
3.9823151 -0.40409222 2.3537652 4293454056
3.9833732 -0.4190774 2.353931 4293519849
3.9848182 -0.43411258 2.35413 4293651435
3.9904292 -0.44962421 2.354614 4293848814
3.9975793 -0.46535784 2.3552556 4293980400
4.0042171 -0.48108435 2.3558757 4294177779
4.0110712 -0.49688715 2.3565123 4294375158
4.0172591 -0.51265645 2.3570988 4294506744
4.0218062 -0.52825868 2.3575881 4294638330
4.0256276 -0.54379755 2.3580289 4294704123
4.0288978 -0.55928934 2.3584411 4294704123
4.0318537 -0.57476026 2.358814 4294769916
4.0344672 -0.59020334 2.3591595 4294769916
4.0369205 -0.60564119 2.3594744 4294769916
4.0392694 -0.62108088 2.3597701 4294769916
4.0417914 -0.63656515 2.360075 4294769916
4.0441175 -0.65203667 2.3603642 4294769916
4.0461383 -0.66747421 2.3606029 4294769916
4.0480537 -0.68290859 2.3608208 4294704123
4.0496712 -0.69830585 2.3610127 4294638330
4.0505342 -0.71358252 2.3611417 4294506744
4.0508666 -0.72876966 2.3612125 4294243572
4.0488439 -0.74353278 2.3612032 4293783021
4.0464067 -0.75822532 2.3616431 4293388263
4.0560613 -0.77523226 2.3636234 4292335575
4.056603 -0.79037082 2.3612075 4290032820
4.0150089 -0.7968573 2.3481107 4287072135
4.0200996 -0.81284124 2.3476059 4286019447
4.0636234 -0.83682871 2.3516982 4287401100
4.1245418 -0.86479247 2.3573978 4287664272
4.1623659 -0.88828009 2.361028 4287730065
4.1791801 -0.90748399 2.3627357 4288059030
4.1330819 -0.91292822 2.3592429 4288519581
4.069705 -0.91416204 2.3546059 4288914339
4.0807137 -0.93187624 2.355648 4289309097
4.0923181 -0.94981325 2.3567977 4289111718
4.1739535 -0.9845016 2.3675556 4288716960
4.3177886 -1.0347506 2.3846908 4287006342
4.4118619 -1.0738616 2.3950553 4286282619
4.2503719 -1.33594 2.3767657 4282795590
3.9497597 -1.2561097 2.348033 4283058762
3.8986259 -1.2546527 2.3488772 4282532418
3.8862424 -1.2652104 2.3484111 4282335039
3.8783305 -1.2771093 2.3475392 4282532418
3.8732035 -1.2898629 2.346633 4282729797
3.8693526 -1.3030112 2.3459067 4281808695
3.8674278 -1.3167754 2.3451188 4280558628
3.8660321 -1.3307021 2.3442614 4280032284
3.8637657 -1.3443241 2.3435078 4279900698
3.8572192 -1.3564423 2.3427603 4279966491
3.8397043 -1.3646414 2.3416381 4280295456
3.8172352 -1.3709459 2.3403983 4280163870
3.7946997 -1.3770114 2.3381526 4279374354
3.7874687 -1.3885114 2.3371034 4278848010
3.7797248 -1.3997791 2.3362515 4278782217
3.770942 -1.4106041 2.335392 4278716424
3.7611692 -1.4209929 2.3345129 4278584838
3.7472174 -1.4297231 2.3334527 4278650631
3.7269225 -1.4359096 2.331918 4279045389
3.7169814 -1.4459567 2.3309746 4279308561
3.703177 -1.4544222 2.3298991 4279242768
3.6937222 -1.4645025 2.3290684 4279045389
3.6865766 -1.4754337 2.3283887 4278979596
3.678966 -1.4861228 2.3276484 4279242768
4.3154569 0.96477592 2.349333 4282071867
4.2922435 0.94351059 2.3487244 4282137660
4.2717376 0.92301035 2.3481565 4282137660
4.2501717 0.90243298 2.3476341 4282203453
4.2309117 0.88250834 2.3470185 4282203453
4.2130947 0.86302537 2.3464577 4282203453
4.194715 0.84356123 2.345875 4282203453
4.1778769 0.8245486 2.3451574 4282137660
4.160955 0.80564123 2.3445427 4282137660
4.1469369 0.78741777 2.3440049 4282137660
4.1309476 0.76893002 2.3433566 4282137660
4.1194367 0.75138491 2.3429139 4282071867
4.1082559 0.73398471 2.3424988 4282006074
4.0984325 0.71690667 2.3421655 4282006074
4.0883222 0.69985068 2.3418603 4282071867
4.0783129 0.68288773 2.3415468 4282071867
4.0683355 0.6659984 2.3413961 4282137660
4.0607076 0.64956361 2.3413327 4282203453
4.053452 0.63324177 2.3413537 4282335039
4.0453892 0.61684513 2.3414521 4282400832
4.0408282 0.60104084 2.3415594 4282598211
4.0383 0.5855701 2.3417206 4282729797
4.0375552 0.57037574 2.3418941 4283058762
4.0376186 0.55530179 2.342041 4283453520
4.0376768 0.54022974 2.3421135 4284045657
4.037569 0.52513951 2.3420751 4284637794
4.0385103 0.51018357 2.3421021 4285361517
4.0353322 0.4947308 2.3414035 4285953654
4.0020299 0.47584301 2.3351023 4286282619
3.9863205 0.45922497 2.3303325 4286874756
3.9898992 0.44475809 2.3301215 4287598479
3.98248 0.42905679 2.3295901 4287861651
3.9781415 0.41373223 2.3292899 4287664272
3.9976044 0.4008393 2.3306301 4287006342
4.0086269 0.38698035 2.331425 4286677377
4.0049701 0.37166923 2.3312008 4286743170
4.0043097 0.35665399 2.3311818 4286940549
4.0020943 0.3415103 2.3310516 4287137928
3.997767 0.32620981 2.3307729 4287269514
3.9909036 0.31074265 2.330323 4287335307
3.9847231 0.29537776 2.3299198 4287401100
3.9768224 0.27993715 2.3293948 4287466893
3.974319 0.26491842 2.329236 4287401100
3.9724641 0.24995956 2.3291223 4287269514
3.9747853 0.23526442 2.3292847 4286940549
3.9822505 0.22083683 2.3298826 4286940549
3.9803736 0.20583867 2.3305192 4289045925
3.9165926 0.18785083 2.3268588 4290295992
3.9391427 0.1742402 2.3283088 4291940817
3.9445765 0.15975533 2.3286519 4291809231
3.947871 0.14514908 2.3288705 4291677645
3.951581 0.13053256 2.329109 4291611852
3.9556358 0.11589906 2.32936 4291611852
3.9580495 0.10119166 2.3295164 4291546059
3.9610174 0.086479075 2.3297002 4291414473
3.9637761 0.071740441 2.3298693 4291348680
3.9664183 0.056979571 2.3300276 4291217094
3.9682734 0.042190079 2.3301334 4291151301
3.9693291 0.027380949 2.3301797 4291217094
3.9703519 0.012563804 2.330224 4291217094
3.9714811 -0.0022609809 2.3302758 4291151301
3.9623804 -0.017058499 2.3296874 4290559164
3.9645214 -0.0318642 2.3296742 4289440683
3.9865103 -0.046899077 2.3307915 4288585374
3.9943383 -0.061903264 2.3313577 4288322202
4.0037799 -0.076996855 2.3320553 4289045925
4.0072784 -0.092036188 2.3325586 4289177511
3.9130037 -0.10446253 2.3242223 4289967027
3.8445287 -0.11711476 2.3216765 4291348680
3.8487043 -0.13166015 2.3231723 4292072403
3.8513219 -0.14613864 2.3235767 4291743438
3.8532481 -0.16060285 2.3238001 4291611852
3.8550863 -0.17507775 2.3240235 4291546059
3.8568223 -0.18956122 2.3242342 4291677645
3.8585565 -0.20405786 2.3244526 4291743438
3.860585 -0.21858561 2.3247316 4291677645
3.8634872 -0.23318498 2.3251743 4291611852
3.8661304 -0.24778748 2.3255475 4291480266
3.8689287 -0.26241994 2.3259263 4291480266
3.8725612 -0.27713507 2.3264248 4291348680
3.8817058 -0.29230511 2.3276904 4291282887
3.8961461 -0.30797076 2.3296087 4291348680
3.8986654 -0.32273212 2.329915 4291743438
3.9085569 -0.33815858 2.3310449 4292664540
3.9499226 -0.35653111 2.3355777 4293059298
3.9650662 -0.37271386 2.3370867 4292861919
3.9741344 -0.38842478 2.3382821 4292796126
3.977998 -0.40366492 2.3387935 4292664540
3.9775174 -0.41847345 2.3388565 4292598747
3.9746614 -0.43302491 2.3388379 4292730333
3.9740145 -0.44779924 2.3388977 4292730333
3.9738469 -0.46262458 2.3390002 4292796126
3.9747396 -0.47757334 2.3391302 4292927712
3.9801173 -0.49308327 2.3396182 4293190884
3.9883919 -0.50900561 2.3404102 4293454056
3.9970186 -0.52503598 2.3412323 4293717228
4.0085983 -0.54152983 2.3423088 4293980400
4.0202599 -0.55811894 2.3433332 4294177779
4.0247426 -0.57377201 2.3437524 4294243572
4.029788 -0.58953929 2.3441827 4294309365
4.0303335 -0.60467476 2.3443551 4294243572
4.0322218 -0.62001705 2.3445578 4294243572
4.032661 -0.63515204 2.3447895 4294177779
4.0337186 -0.65038514 2.3449657 4294046193
4.0319157 -0.66515958 2.345016 4293914607
4.0310783 -0.68007982 2.3450658 4293980400
4.0297055 -0.69490892 2.3452342 4293651435
4.0295658 -0.70994681 2.3455467 4293190884
4.0314789 -0.72535628 2.3461053 4292598747
4.0375452 -0.74154699 2.3471084 4291743438
4.0324178 -0.75558335 2.344918 4290493371
3.9023547 -0.74521458 2.3200696 4286874756
3.9086046 -0.76104152 2.3215871 4285164138
3.9482014 -0.78354347 2.3261116 4284900966
4.0005527 -0.80889535 2.3310463 4286216826
4.0464005 -0.83328927 2.3351934 4287401100
4.1088305 -0.86150742 2.3408384 4287795858
4.0697351 -0.86851895 2.3378916 4288059030
4.0342064 -0.87603939 2.3358922 4288585374
4.0479383 -0.89416444 2.3377125 4289177511
4.0604038 -0.91209006 2.3389969 4289177511
4.0862927 -0.93322241 2.3425562 4288782753
4.1372919 -0.96037763 2.3482246 4287861651
4.1955647 -0.98964047 2.3547347 4287137928
4.2968302 -1.029704 2.3662794 4286545791
4.390614 -1.0686696 2.3763676 4286282619
4.4801879 -1.1072714 2.3855474 4286151033
4.1947632 -1.3185179 2.3574204 4283387727
3.9394956 -1.2529157 2.3339908 4282927176
3.9000847 -1.2551279 2.3346069 4282532418
3.8871584 -1.2655178 2.3342168 4282335039
3.8808453 -1.2779424 2.3334229 4282269246
3.8762794 -1.2908965 2.3326709 4281874488
3.8721664 -1.3039652 2.3318746 4281282351
3.8684862 -1.3171514 2.3311336 4280624421
3.8677814 -1.3313193 2.3303232 4279966491
3.8664284 -1.3452617 2.3295653 4279637526
3.8600159 -1.3574364 2.3288438 4279637526
3.8486891 -1.3678266 2.327914 4279900698
3.8305192 -1.375694 2.3268235 4279637526
3.8049655 -1.3807287 2.3247173 4278979596
3.7916322 -1.390048 2.3235579 4278650631
3.7848136 -1.4016726 2.3227868 4278584838
3.7752604 -1.4122303 2.3219285 4278453252
3.7649291 -1.4224259 2.3210773 4278453252
3.7506855 -1.4310595 2.3200586 4278584838
3.7319119 -1.4378401 2.3186235 4279045389
3.7263343 -1.4495949 2.3179119 4279440147
3.7056379 -1.4554027 2.3166013 4279176975
3.6968448 -1.4657533 2.3158362 4278913803
3.6890748 -1.4764491 2.3151903 4278913803
3.6804144 -1.4867258 2.3144376 4279834905
4.3148751 0.96463257 2.3333342 4282137660
4.2915659 0.94334948 2.3327899 4282203453
4.2707825 0.92279381 2.332238 4282203453
4.2497139 0.90232819 2.3317814 4282269246
4.2311602 0.88255429 2.3312573 4282269246
4.2136478 0.86313426 2.3307605 4282203453
4.1959434 0.84380674 2.3302372 4282203453
4.1782694 0.82461977 2.3296516 4282137660
4.1622963 0.80589861 2.3290808 4282137660
4.14783 0.7875855 2.3285568 4282071867
4.1318579 0.76909733 2.3279848 4282071867
4.1198645 0.75146067 2.3275573 4282006074
4.1081533 0.73396415 2.3271487 4281940281
4.0983381 0.71688837 2.326844 4281874488
4.0876212 0.69972885 2.3265374 4281874488
4.0753689 0.68238479 2.326297 4281940281
4.065783 0.66557431 2.3261259 4282006074
4.0582204 0.64915967 2.326098 4282137660
4.0522528 0.6330536 2.3261237 4282203453
4.0454125 0.61685205 2.326252 4282335039
4.0413423 0.60112232 2.3263819 4282400832
4.0387979 0.58564842 2.3265283 4282532418
4.038168 0.57046878 2.3267069 4282795590
4.0385933 0.55544275 2.3268752 4282927176
4.0389919 0.54041314 2.3269606 4283190348
4.0395555 0.5254038 2.3270164 4283519313
4.0405283 0.51044405 2.3270524 4284045657
4.0416474 0.49549669 2.327055 4284703587
4.0423961 0.4804976 2.327014 4285361517
4.0407062 0.46521756 2.3266392 4286085240
4.0073862 0.44651589 2.321454 4286611584
3.9729493 0.42797136 2.3154042 4287203721
3.9705019 0.41293493 2.3138142 4287795858
3.9637613 0.39743188 2.3133035 4288322202
3.9565711 0.38193342 2.3128183 4288190616
3.9755599 0.36892942 2.314105 4287466893
3.9971542 0.35601619 2.3155832 4287006342
3.9985342 0.34120765 2.3157029 4287072135
3.9937813 0.32588533 2.3154182 4287269514
3.985842 0.31034845 2.3149323 4287598479
3.9721551 0.29444137 2.3140824 4287861651
3.9665647 0.2792109 2.3137555 4287993237
3.9647894 0.26427889 2.3136675 4287993237
3.9603591 0.24919079 2.3134296 4287993237
3.9578414 0.23424952 2.313329 4287795858
3.9565566 0.21939552 2.3133221 4287664272
3.9611769 0.2048474 2.3140197 4288651167
3.9440577 0.18920517 2.3134191 4289769648
3.9511201 0.17479233 2.3139195 4290361785
3.9539049 0.16015202 2.3141179 4290295992
3.9563928 0.14548033 2.3142841 4290164406
3.9586527 0.1307819 2.3144481 4290230199
3.9604487 0.11605302 2.3145752 4290230199
3.9617641 0.10129799 2.3146753 4290230199
3.9624424 0.086518511 2.314743 4290230199
3.9626136 0.071724549 2.3147769 4290164406
3.9610765 0.056903463 2.3147082 4290032820
3.9603457 0.042103413 2.3146787 4290032820
3.958586 0.027301092 2.3145833 4290164406
3.9571018 0.012513105 2.3145015 4290230199
3.9567094 -0.0022634133 2.3144808 4290230199
3.9501586 -0.017017065 2.3141387 4289901234
3.9525928 -0.031783681 2.3142462 4289177511
3.9695761 -0.046727426 2.3151937 4288322202
3.9771297 -0.061679136 2.3160923 4287598479
3.9867816 -0.076725125 2.3170927 4287993237
3.9934263 -0.091761842 2.3175411 4288585374
3.902473 -0.10419016 2.3089206 4289572269
3.8475602 -0.11722176 2.3078864 4291414473
3.850466 -0.13172148 2.3089397 4292401368
3.8524425 -0.14618036 2.3092387 4292138196
3.8541563 -0.16064163 2.3094809 4291940817
3.8558712 -0.17511483 2.3097003 4291809231
3.8575537 -0.18959849 2.3098989 4291875024
3.8592045 -0.20409328 2.3101006 4292006610
3.8611591 -0.21861948 2.3103721 4291940817
3.8641212 -0.23322545 2.3108318 4291743438
3.8668933 -0.24783954 2.3112304 4291546059
3.8695171 -0.26246294 2.3115842 4291414473
3.8727603 -0.27715155 2.3120191 4291282887
3.8806555 -0.29222715 2.3131294 4291348680
3.8911896 -0.30757558 2.3145764 4291546059
3.8930075 -0.32226005 2.3148103 4291677645
3.8974879 -0.33719331 2.3153756 4292138196
3.9177978 -0.35361379 2.3178165 4292401368
3.9502027 -0.37144861 2.3241291 4290822336
3.9448576 -0.38565376 2.3231637 4290032820
3.9429555 -0.40017858 2.32271 4290559164
3.9475718 -0.41536167 2.3224828 4291217094
3.9578364 -0.43121931 2.3232808 4291546059
3.9653327 -0.446841 2.3238385 4291611852
3.968451 -0.46201065 2.3240769 4291611852
3.9698155 -0.47699881 2.3243077 4291611852
3.9716198 -0.49205318 2.3246095 4291611852
3.9747534 -0.50728983 2.3249996 4291743438
3.9791276 -0.52271432 2.3255246 4292072403
3.9856176 -0.53845984 2.3262775 4292335575
3.9917276 -0.55420041 2.3269863 4292532954
3.9950569 -0.56958574 2.3273654 4292664540
3.9972517 -0.58482808 2.3276091 4292664540
3.9984653 -0.59993839 2.3277457 4292598747
4.0014682 -0.61533749 2.3281312 4292796126
4.0052409 -0.63088119 2.3285987 4292532954
4.0091796 -0.64648056 2.3290954 4292269782
4.0112276 -0.66179371 2.3293555 4292006610
4.0124116 -0.67697477 2.3295088 4291677645
4.0148749 -0.69238764 2.329818 4291085508
4.0196404 -0.70822805 2.3303928 4290493371
4.026825 -0.72453392 2.331048 4289572269
3.9130237 -0.71826255 2.312222 4287269514
3.8412898 -0.71922398 2.3009765 4285098345
3.8359661 -0.73256791 2.3010056 4284045657
3.8529043 -0.7501595 2.3015246 4284111450
3.9411891 -0.78216654 2.3110964 4285032552
3.985364 -0.80583489 2.3150885 4287137928
3.982116 -0.82005292 2.3149602 4287927444
3.9823992 -0.83500242 2.3155024 4288585374
3.9985421 -0.85333955 2.3173215 4288848546
4.022625 -0.87353474 2.3200974 4288980132
4.0437722 -0.89326435 2.3227046 4288716960
4.0873423 -0.91820556 2.3274946 4288190616
4.119688 -0.9408893 2.3308988 4287401100
4.1432037 -0.96175718 2.3333993 4286874756
4.181778 -0.98636705 2.3374512 4286743170
4.2304945 -1.0136983 2.3423789 4286677377
4.315361 -1.0502319 2.3511612 4286677377
4.4224873 -1.0929068 2.3618662 4286545791
4.4840698 -1.1248881 2.3673074 4286414205
4.514925 -1.1494994 2.3700833 4286414205
4.5075784 -1.164409 2.3683355 4286677377
4.1374812 -1.3005722 2.3384101 4283650899
3.9364665 -1.2519886 2.3198507 4282927176
3.9042478 -1.2564592 2.3202512 4282729797
3.8896773 -1.2663374 2.3199515 4282532418
3.8821242 -1.2783736 2.3192971 4282335039
3.8768003 -1.2910852 2.3186083 4281874488
3.8730938 -1.304292 2.3178387 4281413937
3.869621 -1.3175522 2.3171251 4280953386
3.8701856 -1.3321592 2.3163705 4280361249
3.8722801 -1.3472984 2.3156443 4279966491
3.8648558 -1.3591421 2.3149238 4279834905
3.8547137 -1.3699695 2.3140948 4279769112
3.8439496 -1.3804945 2.3131399 4279242768
3.8121471 -1.3833375 2.3111801 4278848010
3.7978454 -1.3923324 2.3100748 4278650631
3.788254 -1.4029597 2.3092356 4278584838
3.7778766 -1.4132235 2.308383 4278584838
3.7679827 -1.4235935 2.3075924 4278584838
3.7550578 -1.4327388 2.306674 4278716424
3.7402906 -1.4410691 2.3054187 4279242768
3.7337534 -1.452486 2.3047364 4279440147
3.7075713 -1.4561772 2.3032753 4279111182
3.6993833 -1.4667741 2.3025734 4278848010
3.6951787 -1.4789019 2.3021502 4279111182
3.6870382 -1.4894097 2.3014362 4280361249
4.3140297 0.96443063 2.3173151 4282137660
4.2913241 0.94328564 2.3168578 4282203453
4.2693419 0.92246783 2.3164179 4282269246
4.2499537 0.90237254 2.3159575 4282269246
4.2317767 0.88267779 2.3155057 4282203453
4.2144308 0.86329061 2.3150699 4282137660
4.1970072 0.84401852 2.3145955 4282137660
4.1791477 0.82479054 2.3140833 4282071867
4.1635737 0.80614316 2.3136151 4281940281
4.1483808 0.78768754 2.3130929 4281940281
4.1330986 0.76932597 2.3126357 4281874488
4.1205053 0.75157499 2.3122208 4281808695
4.1079178 0.73391908 2.311806 4281742902
4.097856 0.71680146 2.311517 4281742902
4.085856 0.69942003 2.3112643 4281808695
4.0740371 0.68215936 2.311002 4281808695
4.0636935 0.66522616 2.3109105 4281940281
4.056365 0.64885741 2.3109207 4282071867
4.0502477 0.63273293 2.3110123 4282203453
4.0454435 0.61685944 2.3110721 4282203453
4.0418406 0.60120052 2.3112223 4282335039
4.0393896 0.58573949 2.3113582 4282466625
4.038816 0.57056648 2.3115237 4282598211
4.0393972 0.55556077 2.3116713 4282729797
4.0400777 0.54056579 2.3117802 4282861383
4.0408769 0.52558291 2.3118546 4282992969
4.0417933 0.51061118 2.3118808 4283256141
4.0429416 0.49566203 2.3118975 4283585106
4.0433683 0.48061895 2.3118489 4284111450
4.0431519 0.46549803 2.3117671 4284835173
4.0419216 0.45026591 2.3116024 4285493103
4.0401893 0.43499136 2.3113384 4286216826
4.0153217 0.41738242 2.3078372 4286743170
3.9455183 0.39555711 2.2982438 4287072135
3.944181 0.38073385 2.2971175 4287861651
3.9477527 0.36633816 2.2973609 4288387995
3.9421937 0.35109675 2.2970722 4288387995
3.9458404 0.33668819 2.2973228 4287927444
3.9755824 0.32439387 2.2992146 4287203721
3.9735842 0.30938998 2.2991431 4287006342
3.9602835 0.29355726 2.298377 4287401100
3.9615457 0.27885675 2.2985027 4287993237
3.9582071 0.26383764 2.2983479 4288322202
3.954926 0.24884644 2.2982137 4288322202
3.953516 0.23399086 2.2982109 4288190616
3.9535484 0.21922641 2.2983005 4288124823
3.9558573 0.20457219 2.2987525 4288651167
3.9483731 0.18942054 2.2987337 4289506476
3.9516625 0.17482102 2.2990167 4289967027
3.9542699 0.1601707 2.2992115 4290032820
3.9567466 0.14549614 2.2993953 4289967027
3.9589095 0.13079275 2.2995548 4290032820
3.9606731 0.11606107 2.2996955 4290164406
3.9619665 0.10130406 2.2998042 4290164406
3.9626813 0.086524338 2.29988 4290098613
3.9623008 0.071718924 2.2998865 4290032820
3.9611096 0.056903906 2.2998524 4289901234
3.960022 0.042099513 2.2998099 4289901234
3.957891 0.027295347 2.2997065 4289967027
3.9561942 0.012508898 2.2996247 4290098613
3.9553692 -0.0022646198 2.2995892 4290032820
3.9478815 -0.017010134 2.2992263 4289769648
3.9448261 -0.031730264 2.2990668 4288980132
3.9600496 -0.046629112 2.299938 4287927444
3.9731159 -0.061625019 2.3010805 4287269514
3.9840324 -0.076678388 2.3020921 4287795858
3.992732 -0.091751263 2.30265 4288782753
3.8819034 -0.10366441 2.2933271 4289769648
3.8504226 -0.11732092 2.2940009 4291940817
3.8516254 -0.13176082 2.2946134 4292269782
3.8534014 -0.14621715 2.2949097 4292072403
3.8551316 -0.16068311 2.2951586 4291809231
3.8566277 -0.17515014 2.2953594 4291743438
3.8582315 -0.18963313 2.2955551 4291809231
3.8598433 -0.20412838 2.2957482 4291940817
3.8617516 -0.21865453 2.2960155 4291940817
3.8647797 -0.23326713 2.2964816 4291677645
3.8674428 -0.2478769 2.296869 4291414473
3.8698123 -0.26248476 2.2971869 4291217094
3.8725214 -0.27713501 2.2975397 4291151301
3.8804288 -0.29221261 2.2986748 4291348680
3.889111 -0.30741102 2.2998781 4291677645
3.8899581 -0.32200661 2.3000131 4291940817
3.8945208 -0.33693907 2.3006544 4292467161
3.9113369 -0.35302612 2.3025899 4291809231
3.9301198 -0.36958015 2.3083122 4287927444
3.8796034 -0.37915051 2.3004758 4285295724
3.882689 -0.39393383 2.300313 4284308829
3.8804526 -0.40819526 2.3000934 4285427310
3.8916485 -0.42392224 2.3013673 4286808963
3.9151397 -0.44113535 2.3039966 4288059030
3.9445353 -0.45921966 2.3072722 4289506476
3.9650214 -0.47644016 2.3095469 4289901234
3.9759431 -0.49261442 2.3107409 4290164406
3.9830806 -0.50838131 2.3115032 4290427578
3.9874356 -0.52383161 2.3119466 4290690750
3.9904478 -0.53913206 2.3122637 4290822336
3.9927795 -0.55435985 2.3125114 4290953922
3.9941297 -0.56946379 2.3126512 4291019715
3.9949787 -0.58450365 2.3127344 4291019715
3.9961276 -0.59959596 2.312865 4291085508
4.0006976 -0.61522907 2.3134017 4290756543
4.0050249 -0.63085747 2.313906 4290295992
4.0079894 -0.64629561 2.3142385 4289901234
4.0108929 -0.66174406 2.3145275 4289440683
4.0157013 -0.67753112 2.3148639 4288782753
4.0156851 -0.69248724 2.3140428 4287993237
3.9873075 -0.70237935 2.3094556 4286808963
3.919502 -0.70486039 2.2991621 4284966759
3.9015234 -0.71611917 2.2958705 4283585106
3.8665392 -0.72408146 2.2918243 4283256141
3.8025925 -0.72618806 2.2839 4284111450
3.8642864 -0.75244737 2.2897823 4285295724
3.9450884 -0.78301865 2.2985978 4286940549
3.9662786 -0.80205917 2.3008132 4288256409
3.9631371 -0.81618685 2.2996626 4288716960
3.9752426 -0.83351469 2.3003402 4288782753
3.9991939 -0.85347956 2.3023896 4288519581
4.0761328 -0.88522327 2.3107889 4287466893
4.0972629 -0.90515423 2.3134358 4287072135
4.1076937 -0.922809 2.3145165 4286743170
4.121191 -0.94124377 2.3158743 4286677377
4.1421008 -0.96150804 2.3179879 4286677377
4.1720867 -0.98406851 2.3207808 4286743170
4.2008781 -1.0065519 2.3231282 4286874756
4.2285028 -1.0289593 2.3252182 4286874756
4.2647395 -1.0536935 2.3277974 4286808963
4.2959981 -1.077444 2.3298531 4286743170
4.3451943 -1.1060299 2.3341472 4286677377
4.4360557 -1.1458199 2.3433988 4286611584
4.6082015 -1.2072998 2.3521831 4284308829
4.0749106 -1.280953 2.3191833 4283387727
3.9352062 -1.2516178 2.3057413 4282861383
3.907234 -1.2574234 2.3060169 4282861383
3.8984909 -1.2691795 2.3055885 4282861383
3.8917155 -1.2815049 2.305032 4282795590
3.884012 -1.2934736 2.3044617 4282400832
3.8760886 -1.3053075 2.3038104 4281742902
3.8713725 -1.3181608 2.3031185 4281019179
3.8728497 -1.3330868 2.3023944 4280492835
3.8761754 -1.3486603 2.3016582 4280163870
3.8706889 -1.3611941 2.3009863 4280098077
3.8589537 -1.3714831 2.3002007 4279900698
3.8529344 -1.3837157 2.2993884 4279571733
3.8371184 -1.3923638 2.2981498 4279308561
3.8176661 -1.3995774 2.2969964 4279045389
3.7980065 -1.4065709 2.2958679 4278913803
3.7823589 -1.4149104 2.2948768 4278848010
3.7709475 -1.4247274 2.2940791 4278782217
3.75964 -1.4344974 2.2932589 4278913803
3.7478986 -1.4440047 2.2921705 4279440147
3.7377236 -1.4540431 2.2914064 4279440147
3.7105772 -1.4573703 2.2899647 4278913803
3.7017782 -1.4677384 2.2892962 4278848010
3.7165847 -1.4874579 2.2898173 4279834905
3.7282314 -1.5060171 2.2902069 4282466625
4.3324561 0.98475045 2.3016741 4282137660
4.3125257 0.96407646 2.3013995 4282071867
4.2910275 0.94321096 2.300894 4282071867
4.2694263 0.92247868 2.3005204 4282071867
4.2505546 0.90249461 2.3001342 4282137660
4.2325859 0.882842 2.2997482 4282071867
4.215322 0.86346936 2.2993746 4282006074
4.1978512 0.84418571 2.2989378 4281940281
4.1802464 0.82500482 2.2985239 4281874488
4.1647072 0.80635947 2.2981427 4281742902
4.1485324 0.78770953 2.297713 4281742902
4.134408 0.76956707 2.2972927 4281677109
4.1207323 0.75160921 2.2969763 4281677109
4.1075611 0.73384833 2.2965674 4281677109
4.0959425 0.71645552 2.2963219 4281677109
4.0830841 0.69893432 2.2960579 4281677109
4.0712934 0.6816892 2.2958367 4281808695
4.0621829 0.6649729 2.2957549 4281940281
4.055274 0.64867771 2.2958081 4282006074
4.049921 0.63268167 2.295855 4282137660
4.0451851 0.61681932 2.2959554 4282203453
4.0420012 0.60122669 2.296078 4282335039
4.0399671 0.58582741 2.296207 4282466625
4.0395894 0.57068235 2.2963321 4282532418
4.040235 0.5556826 2.2964818 4282598211
4.0410032 0.54069674 2.2965829 4282664004
4.0418377 0.52571589 2.2966363 4282729797
4.0427499 0.51073986 2.2966616 4282927176
4.0437164 0.49576524 2.2966506 4283058762
4.0440273 0.48070577 2.2965829 4283321934
4.0437145 0.46557188 2.2964792 4283650899
4.0416613 0.45024604 2.296257 4284111450
4.0393233 0.43490565 2.2959948 4284835173
4.035111 0.4193868 2.2956221 4285624689
4.0263791 0.40344843 2.294872 4286151033
3.99582 0.38547882 2.2922881 4286677377
3.9279606 0.36438155 2.2842958 4287072135
3.9230821 0.34937963 2.2812989 4287730065
3.9369812 0.33592933 2.2819462 4288256409
3.93486 0.32105088 2.2819061 4288256409
3.9339731 0.30628526 2.2819304 4287795858
3.9439492 0.29233944 2.282521 4287072135
3.9296553 0.27659595 2.2817676 4287006342
3.9230583 0.26147676 2.281445 4287401100
3.9458158 0.24826926 2.2828147 4288190616
3.9497507 0.23376575 2.2831559 4288453788
3.9493542 0.21898967 2.2832668 4288453788
3.9531665 0.2044327 2.2837191 4288782753
3.9490931 0.18945764 2.2839041 4289506476
3.9521859 0.17484613 2.2841768 4289901234
3.9547632 0.16019233 2.2843678 4289967027
3.9571598 0.14551274 2.2845428 4289967027
3.9593241 0.13080759 2.2847016 4289967027
3.9609561 0.11607027 2.2848325 4290032820
3.9620364 0.10130641 2.2849302 4289967027
3.962471 0.086519957 2.2849927 4289901234
3.9619932 0.071713224 2.2850029 4289835441
3.9605899 0.056895971 2.2849677 4289769648
3.9592113 0.042090043 2.2849188 4289769648
3.9563749 0.027283309 2.2847924 4289769648
3.9543009 0.012500852 2.284703 4289835441
3.9513743 -0.0022662878 2.2845693 4289769648
3.943279 -0.016994976 2.2842116 4289572269
3.9383643 -0.031685282 2.2839911 4288914339
3.9487782 -0.046508249 2.2845833 4288124823
3.9647353 -0.061502732 2.2857776 4287335307
3.9775603 -0.076560274 2.2868547 4287795858
3.9564912 -0.090960033 2.2861457 4289111718
3.8585389 -0.10310505 2.2787673 4290164406
3.8516438 -0.11735916 2.2797034 4292138196
3.8533423 -0.13181777 2.2802827 4291875024
3.8551993 -0.14628592 2.2806387 4291414473
3.8567765 -0.16075271 2.2808845 4291217094
3.8579688 -0.17521171 2.2810488 4291217094
3.8592863 -0.18968625 2.2812345 4291348680
3.8609736 -0.20418991 2.2814398 4291480266
3.8629041 -0.21872181 2.281709 4291414473
3.865443 -0.23330821 2.2821071 4291217094
3.8677173 -0.24789508 2.2824466 4290888129
3.8696289 -0.26247197 2.2827005 4290756543
3.8715429 -0.27706295 2.2829447 4290690750
3.8800297 -0.29218501 2.284209 4290953922
3.8872499 -0.3072629 2.2851937 4291282887
3.8886523 -0.32189807 2.2853813 4291677645
3.8926387 -0.33677915 2.2860479 4292730333
3.9012821 -0.35211369 2.2871361 4292730333
3.9097965 -0.36760247 2.2906287 4288782753
3.8831072 -0.37949449 2.2862995 4286414205
3.898572 -0.39554951 2.287096 4284243036
3.9006958 -0.41032827 2.2871897 4283716692
3.9022808 -0.42506093 2.2871652 4283585106
3.9059501 -0.44003361 2.2871339 4283848278
3.9089487 -0.45496303 2.2872319 4284440415
3.9163692 -0.47046125 2.2880225 4284966759
3.9251826 -0.48618391 2.2888298 4285624689
3.9370711 -0.50236636 2.2899017 4286151033
3.9468193 -0.51835477 2.2907736 4286743170
3.9525666 -0.53387213 2.2912681 4287072135
3.9566586 -0.54920071 2.2915928 4287335307
3.9589536 -0.56430125 2.2917273 4287532686
3.9606297 -0.57932627 2.2917666 4287664272
3.9611149 -0.59418315 2.2916687 4287466893
3.9643171 -0.60944957 2.2914908 4287006342
3.9667103 -0.62460452 2.2910573 4286414205
3.9660876 -0.63929909 2.2905929 4285295724
3.9632101 -0.65359968 2.2895353 4284769380
3.9568844 -0.66729814 2.2882416 4284243036
3.9548752 -0.68171221 2.2877197 4283782485
3.9548695 -0.69645971 2.2872324 4283453520
3.9506605 -0.71045876 2.2866271 4283716692
3.969378 -0.72864443 2.28792 4284703587
3.9686153 -0.74332565 2.2879107 4286414205
4.00349 -0.76487672 2.2921536 4287598479
3.9979403 -0.77874309 2.2916934 4288256409
3.9832864 -0.79070979 2.2893174 4288585374
3.9745581 -0.80377728 2.2876475 4288585374
4.01092 -0.82617092 2.291841 4288190616
4.0666876 -0.8528899 2.2970302 4287401100
4.0913715 -0.87335479 2.2990804 4286611584
4.0950103 -0.88940924 2.2990177 4286414205
4.101212 -0.90606326 2.2992878 4286348412
4.1096506 -0.92327315 2.2998919 4286282619
4.1210575 -0.94123107 2.300884 4286348412
4.1396708 -0.960953 2.3025458 4286479998
4.1686244 -0.98325771 2.3050778 4286611584
4.1964002 -1.0054835 2.3072121 4286743170
4.2149444 -1.0256599 2.3084238 4286874756
4.2281861 -1.0446615 2.3091705 4286940549
4.2393475 -1.0632474 2.3099349 4286940549
4.2535143 -1.082693 2.3111901 4286874756
4.335793 -1.1198664 2.3181503 4286677377
4.5023046 -1.1798486 2.334121 4284835173
3.9315038 -1.2946332 2.2940872 4284111450
3.9240799 -1.3068341 2.2933657 4283650899
3.9149208 -1.3183875 2.2923489 4282729797
3.9029887 -1.3289108 2.2907429 4281611316
3.8892829 -1.3387218 2.2887177 4280821800
3.8819683 -1.3506767 2.2876599 4280032284
3.877774 -1.3636833 2.2870297 4279900698
3.86656 -1.3741834 2.2863147 4279966491
3.8647382 -1.3879443 2.2856607 4279966491
3.8718252 -1.4049016 2.2851496 4279966491
3.8692725 -1.4184048 2.2845271 4280229663
3.8587959 -1.4289744 2.2837749 4280098077
3.8332012 -1.4338421 2.2826147 4279966491
3.8165162 -1.4418668 2.2817085 4279834905
3.796113 -1.4483556 2.2806847 4279900698
3.7712705 -1.4529861 2.2794297 4279966491
3.7475507 -1.4578681 2.2782528 4279703319
3.7134755 -1.4585226 2.2766626 4278979596
3.7069495 -1.4697983 2.2761009 4278979596
3.7593901 -1.5045506 2.2782991 4281677109
3.798068 -1.5341568 2.2799203 4283387727
4.3330774 0.98487633 2.2857583 4282006074
4.3125315 0.96406829 2.2853677 4281940281
4.2900486 0.94298285 2.2849901 4281940281
4.2701674 0.92263317 2.2846222 4281808695
4.2515111 0.90269315 2.2843025 4281874488
4.2336812 0.88306677 2.283982 4281808695
4.2165165 0.86371088 2.2836773 4281808695
4.198802 0.84437495 2.2832682 4281742902
4.1810002 0.82515055 2.2829473 4281677109
4.1653061 0.80647129 2.2826521 4281611316
4.1493292 0.78785789 2.2822738 4281545523
4.1355767 0.76978153 2.2819424 4281545523
4.1215935 0.75176299 2.2816727 4281545523
4.1071949 0.73377532 2.281353 4281611316
4.0934105 0.71600026 2.2811346 4281611316
4.0801463 0.69841957 2.2808857 4281677109
4.0686622 0.6812374 2.2807188 4281808695
4.0609632 0.66476697 2.2806425 4281940281
4.0551648 0.64865863 2.2806814 4282006074
4.0498939 0.63267702 2.2807269 4282071867
4.0449519 0.61678225 2.2808666 4282269246
4.0422354 0.60126287 2.2809615 4282335039
4.0408196 0.58595473 2.2810848 4282400832
4.0405979 0.57082945 2.2811964 4282400832
4.0412121 0.55582261 2.2813187 4282466625
4.0419059 0.54082435 2.2813838 4282532418
4.0427461 0.52584118 2.2814245 4282598211
4.0436597 0.51086259 2.2814286 4282664004
4.0444679 0.49586579 2.2813857 4282795590
4.0448942 0.48081759 2.2813148 4282927176
4.0447669 0.46570233 2.2812102 4283124555
4.0436454 0.45047754 2.2810302 4283321934
4.0407443 0.43506914 2.2807345 4283650899
4.0377378 0.41967136 2.2804351 4284111450
4.0322366 0.40404725 2.2799306 4284637794
4.0275846 0.38854638 2.27948 4285427310
4.0225101 0.37304035 2.2790186 4285887861
3.9957271 0.35564145 2.2770154 4286414205
3.9065859 0.33317852 2.2692955 4286545791
3.9021666 0.31834537 2.2659349 4287335307
3.9237764 0.3054862 2.2666056 4288059030
3.9182529 0.29042006 2.266361 4288059030
3.9110551 0.27527595 2.2660408 4287466893
3.9112327 0.26068264 2.2660728 4286940549
3.9029851 0.24555062 2.2657292 4286808963
3.900481 0.23082174 2.2657313 4287335307
3.9281406 0.21780147 2.2673182 4287993237
3.9495237 0.20424257 2.2686787 4288651167
3.9495015 0.18947898 2.2690666 4289374890
3.952491 0.17486127 2.2693243 4289769648
3.9550164 0.16020398 2.2695093 4289835441
3.9575212 0.1455272 2.2696888 4289901234
3.9595616 0.13081637 2.2698374 4289901234
3.9611228 0.11607587 2.2699633 4289901234
3.9621441 0.10130955 2.270062 4289901234
3.9620395 0.08651042 2.2700999 4289835441
3.9612515 0.071699299 2.2701018 4289769648
3.9593089 0.05687654 2.2700498 4289572269
3.9574883 0.042070255 2.2699883 4289440683
3.954046 0.027265105 2.2698503 4289506476
3.9513452 0.01248872 2.2697434 4289638062
3.9478881 -0.002267787 2.2696042 4289703855
3.9365649 -0.016972233 2.2691302 4289374890
3.9301062 -0.031626776 2.2688696 4289045925
3.9263351 -0.046262577 2.2687352 4288651167
3.921361 -0.060854264 2.2685895 4288190616
3.9301827 -0.075669825 2.269268 4288124823
3.8865619 -0.089375637 2.2671342 4289111718
3.856792 -0.10307782 2.2646966 4291019715
3.8525772 -0.11738829 2.2653689 4292335575
3.8539803 -0.13183936 2.2659035 4291809231
3.8560934 -0.14632049 2.2662959 4291085508
3.8579772 -0.16080455 2.2665877 4290690750
3.8597078 -0.17529413 2.2668278 4290559164
3.8611078 -0.18977864 2.267 4290690750
3.8624547 -0.20427169 2.2671914 4290822336
3.8638697 -0.21877883 2.2673917 4290822336
3.8659275 -0.23333855 2.2677174 4290756543
3.8680186 -0.24791525 2.2680318 4290493371
3.8697908 -0.26248384 2.2682703 4290427578
3.8717291 -0.27707776 2.2685258 4290559164
3.8803296 -0.29221046 2.2698088 4290756543
3.8853469 -0.30711076 2.2705038 4290953922
3.8857112 -0.32165024 2.2705495 4291282887
3.8916128 -0.33669212 2.2714894 4292467161
3.8948553 -0.35153231 2.2720981 4293454056
3.8732696 -0.3640644 2.2710013 4292532954
3.8500056 -0.37623289 2.2688503 4290493371
3.8705716 -0.39270514 2.2705092 4288190616
3.8777621 -0.40791294 2.2709634 4287072135
3.8856206 -0.4232398 2.2712841 4286216826
3.895669 -0.43886605 2.27161 4285229931
3.9044425 -0.45442194 2.2719197 4285032552
3.9102774 -0.46969527 2.272145 4284440415
3.913909 -0.48474255 2.2722962 4284045657
3.915211 -0.49951807 2.272244 4283914071
3.9163694 -0.51428252 2.2721345 4283848278
3.9175575 -0.52906018 2.2720413 4283782485
3.9183135 -0.54378843 2.2719586 4283716692
3.9206181 -0.55874145 2.271945 4283914071
3.9226725 -0.57367629 2.2719438 4284045657
3.9245329 -0.58859813 2.2719474 4283979864
3.9275503 -0.60371178 2.2720342 4283914071
3.93132 -0.61896688 2.2721827 4283848278
3.935353 -0.63429302 2.2723618 4283914071
3.9374504 -0.64932954 2.2723935 4284111450
3.934458 -0.66352147 2.2720261 4284308829
3.9372661 -0.67868286 2.271857 4284835173
3.9486301 -0.69537002 2.2722285 4285756275
3.9586172 -0.71191537 2.2730312 4286677377
3.9706812 -0.7289691 2.2752807 4287795858
3.9783669 -0.74525911 2.276381 4288848546
3.9950335 -0.763304 2.2776523 4289243304
4.0051799 -0.78018755 2.2780886 4288716960
4.0364881 -0.80137748 2.2807097 4287730065
4.0754709 -0.82434666 2.2836957 4287137928
4.0847564 -0.84147078 2.2841668 4286611584
4.0886502 -0.85753465 2.2842946 4286085240
4.0922585 -0.87356442 2.2843466 4286019447
4.0965676 -0.889772 2.2844169 4286019447
4.1033659 -0.90656114 2.2846439 4286085240
4.111845 -0.92378742 2.2852008 4286085240
4.1223125 -0.94153643 2.2860205 4286151033
4.1388512 -0.96077746 2.2873743 4286282619
4.1632233 -0.9819929 2.2893488 4286348412
4.19169 -1.0043658 2.291472 4286545791
4.2105622 -1.0246094 2.2927544 4286611584
4.2250018 -1.043896 2.2936599 4286743170
4.2357211 -1.0623653 2.2945015 4286808963
4.2461686 -1.0808581 2.2956264 4286874756
4.2669253 -1.1021312 2.2983992 4286808963
4.2787957 -1.1212928 2.3019471 4286677377
4.128521 -1.2978245 2.293071 4284835173
4.0854688 -1.2995416 2.2898998 4285098345
4.066699 -1.3087537 2.2884927 4285229931
4.0551343 -1.3201705 2.2875843 4285032552
4.0444117 -1.3317779 2.2867248 4284637794
4.0320058 -1.342746 2.2857745 4284111450
4.0127115 -1.3512985 2.2842653 4282861383
3.9569285 -1.3472375 2.2791703 4282400832
3.9240916 -1.3506438 2.2753515 4281282351
3.8978398 -1.3561715 2.2736928 4280361249
3.8879137 -1.36724 2.2730837 4280163870
3.8767819 -1.3778079 2.2724333 4280098077
3.8780625 -1.3927166 2.2718985 4280098077
3.8884892 -1.4109312 2.2714782 4280229663
3.8871841 -1.4249529 2.2709191 4280558628
3.8877068 -1.4396408 2.2704644 4280887593
3.8783486 -1.4506605 2.2698772 4281084972
3.8647847 -1.460032 2.2692409 4281216558
3.8491156 -1.4685029 2.268548 4281282351
3.8303149 -1.4756554 2.2677464 4281084972
3.8053584 -1.4802798 2.266664 4280690214
3.7599483 -1.4767187 2.2648888 4280032284
3.7513492 -1.4873505 2.2643025 4280229663
3.7893035 -1.5164995 2.2658811 4282335039
3.8060818 -1.5373986 2.2664218 4283321934
4.3341742 0.98511714 2.2696791 4281742902
4.3135223 0.96428305 2.2693233 4281677109
4.2907043 0.94312137 2.2689888 4281677109
4.2714443 0.92290497 2.2687073 4281677109
4.2526817 0.90293819 2.2684505 4281611316
4.2348514 0.88330781 2.2681952 4281545523
4.21767 0.86394423 2.2679622 4281545523
4.1998777 0.84458345 2.267761 4281545523
4.1816688 0.82527947 2.2673593 4281479730
4.1654058 0.80648565 2.2671504 4281479730
4.1502576 0.78802729 2.2669475 4281479730
4.1365709 0.76995927 2.2666945 4281479730
4.1222668 0.75188196 2.2663658 4281545523
4.1064715 0.73363757 2.266145 4281611316
4.0908971 0.71554756 2.2659955 4281677109
4.0773544 0.69792932 2.2657657 4281742902
4.0671082 0.68096972 2.2655985 4281808695
4.0598869 0.66458416 2.2655628 4281940281
4.0550985 0.648646 2.2655721 4282071867
4.0498195 0.63266456 2.2656102 4282137660
4.0451026 0.61680585 2.265748 4282269246
4.0428014 0.60134763 2.2658873 4282335039
4.0417271 0.58608902 2.265985 4282400832
4.0416756 0.57098562 2.2660787 4282400832
4.0421648 0.55595958 2.2661374 4282400832
4.0429454 0.54097021 2.2661815 4282466625
4.0437031 0.52597243 2.2662134 4282466625
4.0446825 0.5109992 2.2662024 4282532418
4.0453639 0.49598378 2.2661273 4282664004
4.0458694 0.48094207 2.2660489 4282729797
4.046082 0.46586287 2.2659516 4282795590
4.0455928 0.45070374 2.2658105 4282927176
4.0435348 0.43537986 2.265554 4283124555
4.0407238 0.41999242 2.2652664 4283387727
4.0373621 0.4045718 2.264915 4283585106
4.0322757 0.38900891 2.264478 4284045657
4.0287561 0.37362969 2.2641323 4284637794
4.0229874 0.35807759 2.263613 4285229931
4.0102568 0.34197712 2.262579 4285427310
3.9875607 0.32515898 2.260896 4286085240
3.9305511 0.30585444 2.2565975 4286545791
3.8818986 0.2876811 2.2505248 4286874756
3.9010258 0.274564 2.2508786 4287861651
3.8932769 0.25947362 2.2505713 4287927444
3.8878379 0.24458724 2.2503896 4287532686
3.8886325 0.23011479 2.2504895 4286940549
3.8795199 0.21508008 2.2501423 4286545791
3.8799231 0.2006131 2.2502003 4286743170
3.911844 0.18766442 2.252037 4287927444
3.9420931 0.17440003 2.2538574 4288980132
3.9531159 0.16012737 2.2545362 4289440683
3.9570143 0.14550921 2.2547891 4289572269
3.9592364 0.13080627 2.2549417 4289572269
3.9609878 0.11607234 2.25508 4289703855
3.9621232 0.10130921 2.2551889 4289769648
3.9615707 0.086499959 2.2552104 4289703855
3.9596775 0.071669683 2.2551692 4289572269
3.9568095 0.056838807 2.2550848 4289309097
3.9550889 0.042042803 2.2550404 4289177511
3.9511297 0.027242519 2.2548974 4289309097
3.9476953 0.01247402 2.2547729 4289440683
3.9423063 -0.002269452 2.2545688 4289506476
3.9300687 -0.016949857 2.2541018 4289309097
3.9235983 -0.031580333 2.2538743 4289045925
3.9141359 -0.046128284 2.2534807 4288980132
3.9024665 -0.060572702 2.25298 4288914339
3.8954034 -0.075014755 2.2526739 4288848546
3.8791804 -0.089203775 2.2520452 4289572269
3.857033 -0.1030891 2.2503927 4291217094
3.8532803 -0.11741207 2.2510574 4292467161
3.8545904 -0.13185973 2.2515116 4292203989
3.8567064 -0.14634429 2.2519264 4291480266
3.8586302 -0.16083264 2.2522244 4290953922
3.8603768 -0.17532614 2.25248 4290624957
3.8617606 -0.18981242 2.2526486 4290624957
3.8631644 -0.20431133 2.2528501 4290690750
3.8646054 -0.218823 2.2530587 4290690750
3.8664291 -0.23337044 2.2533402 4290559164
3.8682849 -0.24793315 2.253613 4290559164
3.8698707 -0.26248971 2.2538245 4290690750
3.8717294 -0.27707866 2.2540801 4290953922
3.8798616 -0.29217705 2.2553322 4291282887
3.8828843 -0.30691361 2.2557728 4291611852
3.8832264 -0.32144174 2.2558074 4292072403
3.8882699 -0.33640057 2.2566869 4293256677
3.8891146 -0.35100791 2.2570317 4294177779
3.8670118 -0.36346763 2.2559288 4293585642
3.794492 -0.37077245 2.2499316 4292598747
3.7970397 -0.38519403 2.2499464 4291282887
3.799701 -0.39965057 2.2500682 4289967027
3.803745 -0.41427758 2.2502813 4289177511
3.8095384 -0.42913201 2.2506125 4288848546
3.8243799 -0.44508469 2.2515891 4288453788
3.8386309 -0.46107677 2.2525134 4287993237
3.8533502 -0.47723234 2.2534444 4287532686
3.864675 -0.49306354 2.254123 4287269514
3.8758407 -0.50895637 2.2547405 4286874756
3.8849938 -0.52465981 2.2551982 4286479998
3.8891711 -0.53974211 2.2553568 4286282619
3.890296 -0.55442178 2.2553461 4286216826
3.8918712 -0.56917542 2.2553566 4286282619
3.8924408 -0.58379054 2.2553155 4286282619
3.8940332 -0.59856695 2.2553358 4286414205
3.8959403 -0.61340535 2.2553904 4286545791
3.8999007 -0.6285904 2.2556167 4286808963
3.9071045 -0.64434409 2.2561598 4287137928
3.9103312 -0.65948147 2.256458 4287598479
3.9170449 -0.67524278 2.2569528 4287861651
3.9260201 -0.69145131 2.2575657 4288256409
3.9376116 -0.70819938 2.2583983 4288519581
3.952569 -0.72565717 2.2595823 4288716960
3.9582036 -0.74147606 2.2600486 4288519581
4.0017309 -0.76460087 2.2635939 4288190616
4.0589805 -0.79071021 2.2677052 4286940549
4.0700078 -0.80804956 2.268265 4286348412
4.0768437 -0.82462865 2.2686722 4286019447
4.0827999 -0.84107649 2.2689974 4285822068
4.0880647 -0.85742289 2.2692542 4285822068
4.0927777 -0.87368941 2.2694418 4285756275
4.0984082 -0.89018929 2.2696605 4285690482
4.1063285 -0.90723759 2.2700438 4285756275
4.1151705 -0.92455602 2.2705805 4285822068
4.1248055 -0.94212508 2.2712562 4285822068
4.1385775 -0.96072984 2.2722838 4285953654
4.160717 -0.98141485 2.2739532 4286085240
4.1870394 -1.0032662 2.2758675 4286282619
4.2078056 -1.0239575 2.2773049 4286414205
4.2221241 -1.0432107 2.2783155 4286545791
4.2333474 -1.0618001 2.2792559 4286611584
4.2443914 -1.0804383 2.280436 4286677377
4.2621269 -1.1009135 2.2826777 4286677377
4.2665777 -1.118084 2.2850356 4286743170
4.7410541 -1.4725876 2.3170152 4283453520
4.135797 -1.3001062 2.2780833 4285887861
4.0973272 -1.3033171 2.2755761 4285953654
4.0754657 -1.3115853 2.2741833 4285756275
4.0590358 -1.3214548 2.2730694 4285624689
4.0476108 -1.332846 2.2722151 4285493103
4.0328474 -1.3430393 2.2711174 4285229931
4.0137067 -1.3516457 2.2696655 4283848278
3.9622889 -1.3490646 2.2648373 4283256141
3.9335544 -1.353898 2.2612875 4281677109
3.9067259 -1.3592573 2.2596211 4280821800
3.9033899 -1.3726609 2.259129 4280887593
3.901684 -1.3866142 2.2586374 4280624421
3.8985524 -1.4000467 2.2581415 4280163870
3.9060423 -1.4172809 2.257673 4279966491
3.9086318 -1.4327894 2.2572153 4280163870
3.9062824 -1.4465009 2.256727 4280361249
3.8904808 -1.4551936 2.2560804 4280756007
3.8719633 -1.4627508 2.2554457 4281084972
3.855896 -1.4710997 2.2548594 4281348144
3.8381307 -1.478676 2.2541902 4281611316
3.8344762 -1.4915848 2.2539067 4281611316
3.836446 -1.5066713 2.2539048 4281742902
3.8271391 -1.5173157 2.2534823 4281940281
3.8127389 -1.5258614 2.2529218 4282269246
3.8098445 -1.538929 2.2527156 4282729797
4.3351188 0.98532456 2.253551 4281545523
4.315371 0.96468812 2.2533646 4281479730
4.2920833 0.94341767 2.2530677 4281479730
4.2731118 0.92325962 2.2528546 4281479730
4.2535381 0.90311354 2.2526536 4281479730
4.2356691 0.8834722 2.25247 4281413937
4.2182536 0.86405718 2.2523067 4281413937
4.2007098 0.84474558 2.2521596 4281413937
4.1830258 0.82554185 2.2518764 4281413937
4.1658826 0.80657339 2.2516623 4281413937
4.1511803 0.78819889 2.2515252 4281413937
4.1373649 0.77010292 2.2513378 4281413937
4.1218739 0.75180119 2.2511377 4281479730
4.1050735 0.73337829 2.250936 4281611316
4.0898929 0.71536708 2.2507493 4281742902
4.075798 0.69765431 2.2506471 4281874488
4.0657763 0.68073851 2.2505267 4281940281
4.0589614 0.66442549 2.2505217 4282071867
4.0545273 0.64854813 2.2505543 4282137660
4.0493855 0.63259196 2.2505803 4282203453
4.045506 0.61686754 2.250659 4282269246
4.0433908 0.60143691 2.2507823 4282335039
4.0425286 0.58620864 2.2508516 4282400832
4.0426159 0.57112271 2.2509327 4282400832
4.0432343 0.55611056 2.2510087 4282335039
4.0440459 0.54112285 2.2510109 4282400832
4.0447707 0.52611727 2.2510226 4282466625
4.0458221 0.51115024 2.2509806 4282466625
4.0465794 0.49614033 2.2508948 4282532418
4.0472126 0.48110983 2.2508068 4282598211
4.04742 0.46602541 2.2506955 4282664004
4.0472808 0.45090061 2.2505682 4282729797
4.0454097 0.4355906 2.2503271 4282861383
4.0434632 0.42028683 2.2500806 4282992969
4.0410824 0.40495437 2.2497983 4283124555
4.0379925 0.38957065 2.24949 4283321934
4.0351253 0.37423056 2.2491977 4283650899
4.0309043 0.35879117 2.2488267 4283848278
4.0245829 0.34320539 2.2482953 4284243036
4.0174103 0.32759643 2.2477381 4284835173
4.0073647 0.3118178 2.2469943 4285361517
3.9940345 0.29587257 2.2460034 4285953654
3.9588044 0.27849385 2.2434611 4286479998
3.8892744 0.25913584 2.237663 4286874756
3.881134 0.2441601 2.2355437 4287532686
3.8827205 0.22976145 2.235636 4287664272
3.8754611 0.21485296 2.2354 4287269514
3.8747308 0.20034274 2.2353826 4286874756
3.8759682 0.18593311 2.2354641 4286677377
3.8744063 0.17138964 2.2353969 4286808963
3.8930664 0.15768267 2.2363989 4287730065
3.9300182 0.14451179 2.2384329 4288651167
3.9504948 0.13051635 2.2395852 4289045925
3.9591663 0.11601876 2.2401121 4289374890
3.9616442 0.10129674 2.2402992 4289638062
3.9609036 0.086484946 2.2403181 4289638062
3.9580173 0.07163842 2.2402458 4289440683
3.9551706 0.056814026 2.2401757 4289243304
3.9522822 0.042010792 2.2400932 4289243304
3.9487531 0.027224092 2.2399888 4289309097
3.9437242 0.012458229 2.239814 4289440683
3.9370964 -0.0022708778 2.2395887 4289440683
3.926502 -0.016937749 2.2392399 4289243304
3.9186375 -0.031544853 2.2389855 4289045925
3.9102395 -0.04608598 2.238672 4288980132
3.899035 -0.060522716 2.2382374 4288980132
3.8888125 -0.074893564 2.2378316 4289111718
3.8783586 -0.089185454 2.2374835 4289506476
3.8561862 -0.10308465 2.2363799 4290559164
3.8536155 -0.11743224 2.2369208 4291875024
3.855073 -0.13187818 2.2371714 4292401368
3.856977 -0.14635661 2.237572 4292401368
3.8588443 -0.16084094 2.2377911 4292006610
3.8612764 -0.17536879 2.2381473 4291611852
3.862709 -0.18986113 2.2383225 4291546059
3.8639905 -0.20435654 2.2384975 4291611852
3.8655436 -0.21887973 2.2387629 4291743438
3.8669257 -0.2334047 2.2390299 4291809231
3.8684483 -0.24794969 2.2393231 4292138196
3.8695858 -0.2624785 2.2395551 4292467161
3.8702548 -0.27697885 2.2396691 4292532954
3.8718004 -0.29155862 2.2400527 4292730333
3.8735189 -0.30616012 2.2403569 4292993505
3.8745759 -0.32071671 2.2405438 4293454056
3.8787599 -0.33556321 2.2412159 4294309365
3.8868566 -0.35080019 2.2422819 4294440951
3.8645759 -0.36323947 2.2413723 4293519849
3.7922745 -0.37055665 2.2356491 4292401368
3.7954257 -0.38503271 2.2357287 4291019715
3.7982728 -0.39950305 2.2358584 4289901234
3.8022029 -0.41411254 2.2360535 4289374890
3.8063278 -0.42877308 2.2362552 4289177511
3.8103156 -0.44344833 2.236445 4288980132
3.814482 -0.45817491 2.2366478 4288848546
3.8187025 -0.47293928 2.2368538 4288651167
3.8223534 -0.48766273 2.2370288 4288585374
3.8257411 -0.50237894 2.2371905 4288519581
3.830435 -0.51729691 2.2374341 4288519581
