# .PCD v0.7 - Point Cloud Data file format
VERSION 0.7
FIELDS x y z rgb
SIZE 4 4 4 4
TYPE F F F U
COUNT 1 1 1 1
WIDTH 1123
HEIGHT 1
VIEWPOINT 0 0 0 1 0 0 0
POINTS 1123
DATA ascii
103.25014 -1.641083 4.746892 4293258997
103.24168 -1.6812013 4.7453222 4293258997
103.39133 -1.7398422 4.7806716 4293259252
102.99147 -1.901843 4.6863036 4293061618
102.21095 -1.8352405 4.5049529 4292864495
102.53423 -1.9207009 4.579659 4292798702
102.80269 -2.0012062 4.6410675 4291943393
103.21735 -2.1061027 4.7357416 4289312453
104.02122 -2.2752156 4.9189878 4288458437
103.85761 0.060058612 4.8535628 4293260026
103.57464 0.018223317 4.7887373 4292470510
103.37681 -0.023240086 4.7433925 4291418078
103.06747 -0.059335854 4.6724143 4290102218
102.76045 -0.093920462 4.6021028 4293062643
102.53503 -0.12897573 4.5505075 4293654523
102.48139 -0.16609481 4.5380011 4293720059
102.54128 -0.20572396 4.5513544 4293851388
102.78524 -0.24153003 4.6059566 4293851388
103.65197 -1.518739 4.7945471 4293325304
103.90521 -1.5892485 4.8521299 4292798960
103.69105 0.10400183 4.7722259 4293654782
103.52513 0.06196085 4.7344117 4293720831
103.23276 0.021933341 4.6682348 4293852159
103.15463 -0.01948812 4.6503654 4293655037
103.03663 -0.058636211 4.6234174 4292996853
102.99612 -0.098808534 4.6139708 4290891220
103.06831 -0.14131649 4.6298852 4291943908
103.09769 -0.18241763 4.6361442 4293588732
103.40489 -0.23062308 4.7047281 4294048767
104.01517 -0.28531155 4.8410563 4294048767
103.90083 -0.027531872 4.7734418 4293983487
103.58578 -0.068037048 4.703342 4293982974
103.61158 -0.11231666 4.7087669 4293851903
103.58648 -0.15515617 4.7028651 4292930803
103.58661 -0.19807002 4.702538 4291022807
103.7908 -0.24704704 4.7474203 4293785595
103.98574 -0.29414716 4.7901092 4293720314
103.93742 -0.20963004 4.7357578 4294115071
103.97871 -0.25514847 4.744379 4292075494
103.9917 -0.2982319 4.7467628 4291088599
103.9934 -0.43702757 4.6115484 4294049534
104.00287 -0.66708082 4.5211101 4291878112
103.70566 -0.68984818 4.4611154 4293325559
103.85931 -0.57025617 4.4486146 4294508543
103.64682 -0.60420161 4.4057097 4294246143
103.52564 -0.64083612 4.381145 4293785852
103.25419 -0.66522074 4.327034 4290035652
103.18761 -0.7020849 4.3136425 4292996338
103.21464 -0.73986083 4.3195786 4294245117
103.34969 -0.54289204 4.304194 4294639615
103.12557 -0.57478124 4.2597327 4294377471
103.04885 -0.6132409 4.2442541 4294443007
102.94501 -0.64842325 4.2236099 4294311423
102.91176 -0.68685323 4.2169094 4291351256
102.96384 -0.73128486 4.2268639 4290430154
103.23368 -0.78947479 4.2796378 4293062131
103.85547 -0.87501794 4.401031 4294311679
103.61347 -0.55345213 4.3124604 4294705151
103.05292 -0.57174349 4.203352 4294246143
102.85268 -0.60375321 4.1641717 4294377471
102.79475 -0.64169282 4.1526232 4294443007
102.89667 -0.68978047 4.1718431 4294311679
103.09151 -0.74518836 4.208807 4293456632
103.11784 -0.78885543 4.2134843 4291088084
103.23422 -0.84003836 4.2352982 4291877857
103.2951 -0.88670379 4.2466211 4294246143
103.30478 -0.92876226 4.2483492 4294246399
103.3839 -0.9758271 4.2635922 4294246399
103.85607 -1.0553088 4.3544211 4293851903
103.5021 -0.54760963 4.2475424 4294639615
103.25758 -0.58008575 4.2004552 4293522937
103.11884 -0.61660856 4.1735277 4292798958
103.02338 -0.65618646 4.1546426 4293127667
103.07637 -0.70421159 4.1638689 4293719804
103.13653 -0.75230962 4.1744452 4294048767
103.07769 -0.79050088 4.1627922 4294377471
103.04533 -0.82960504 4.1563001 4293851388
103.02064 -0.86856586 4.1514053 4290035912
102.99072 -0.90666306 4.1456442 4293062390
102.96843 -0.94506538 4.1414165 4293917695
102.97815 -0.98597419 4.1432929 4293786111
103.16267 -1.0391905 4.1789598 4293654527
103.54774 -0.50543922 4.2131467 4294705151
103.39851 -0.54226339 4.184742 4294574079
103.25941 -0.57872236 4.1582527 4292207077
103.08582 -0.61393297 4.1251745 4291812063
103.0313 -0.65489155 4.1143599 4292140772
103.04082 -0.70073217 4.1152644 4293259253
102.99846 -0.74403596 4.106214 4293719804
102.91266 -0.78082222 4.0895557 4293522425
102.83857 -0.81666684 4.0753412 4293588218
102.8008 -0.85391837 4.0681157 4293522939
102.76334 -0.89079624 4.0610442 4290299084
102.73788 -0.92820019 4.0563202 4290430670
102.73886 -0.9676612 4.0565634 4293522941
102.77946 -1.0099137 4.0643916 4293720319
103.35571 -1.0876106 4.1752291 4293786111
103.90724 1.250952 4.232121 4294967295
103.40009 -0.45754465 4.1426558 4292799728
103.22883 -0.49343643 4.1105928 4292536812
103.12486 -0.53081137 4.0910249 4292207847
103.04156 -0.56843477 4.0753222 4290234057
102.95667 -0.60622823 4.0592809 4289904323
102.92231 -0.64715677 4.052465 4290232775
102.88783 -0.68951362 4.0453563 4290232775
102.82519 -0.73057318 4.0328484 4291219670
102.70971 -0.76683486 4.0106812 4290824912
102.61257 -0.80161285 3.992249 4290890705
102.57127 -0.83810312 3.9844644 4290891221
102.5321 -0.87418836 3.9772012 4291417565
102.49894 -0.9104262 3.9711258 4289838533
102.50199 -0.9493652 3.971756 4289641154
102.55184 -0.99188232 3.9811172 4292536046
102.66129 -1.0394279 4.0015798 4293917695
103.00374 -1.1103175 4.064167 4293917695
103.28304 -1.1812474 4.1138206 4294115071
103.35098 -1.2302141 4.1259151 4294311935
103.43414 -1.279332 4.141458 4294311935
103.61819 -1.3388364 4.1756072 4293983487
103.93259 -1.4122273 4.2339215 4291549151
103.92722 0.062692925 4.2000184 4292667116
103.07162 -0.44636893 4.0397549 4294114301
102.99585 -0.48437071 4.0256071 4293852157
102.89491 -0.52097976 4.0069151 4293721085
102.80875 -0.55782193 3.9909377 4293721085
102.72777 -0.59503043 3.975872 4292799986
102.71796 -0.63571352 3.973727 4293917437
102.74259 -0.67935848 3.97768 4293917437
102.70833 -0.72094166 3.9706767 4294508543
102.55742 -0.75610971 3.9421985 4294705151
102.41946 -0.78872424 3.9164724 4294442751
102.35186 -0.8231051 3.903995 4294114815
102.30194 -0.85790092 3.8948801 4294377471
102.27106 -0.8935917 3.8893368 4294443007
102.27899 -0.93210053 3.8908904 4294443007
102.33893 -0.97468346 3.9019697 4292470253
102.46296 -1.0228248 3.9247599 4290562256
102.83081 -1.0969146 3.990396 4292536046
103.0445 -1.1603693 4.027669 4293851903
103.09886 -1.2061341 4.0375643 4294115327
103.17867 -1.2544446 4.0521798 4293918207
103.24245 -1.3016564 4.0639453 4292930802
103.35404 -1.353847 4.0844951 4292536045
103.7431 -1.4351318 4.1554508 4293588733
103.94063 0.69891936 4.1586561 4294967295
104.01376 0.23829818 4.1735864 4293785597
103.90877 0.19370832 4.1539817 4293061874
103.83191 0.15011382 4.1394248 4294967295
103.83662 0.10565851 4.1398778 4294967295
103.75524 0.062190771 4.1247034 4294901759
103.04697 -0.44603696 3.993216 4294705151
102.80254 -0.47721711 3.9490952 4294574079
102.71255 -0.51368231 3.9326575 4294574079
102.63679 -0.55021441 3.918813 4294574079
102.54122 -0.58621716 3.9013727 4294574079
102.5546 -0.62755269 3.9033988 4294639615
102.60833 -0.67250872 3.9124429 4294705151
102.63495 -0.71496987 3.9167871 4294639615
102.57262 -0.75449324 3.9047818 4294508543
102.28023 -0.77944642 3.8514438 4294377471
102.2084 -0.8133831 3.8383644 4294246399
102.13783 -0.8465187 3.8256631 4294115071
102.08418 -0.87999421 3.8161678 4293918207
102.10004 -0.91832733 3.819185 4293983743
102.16995 -0.96095991 3.8319414 4294049791
102.30663 -1.0099605 3.8565321 4293983999
102.63755 -1.0803546 3.9144924 4291812323
102.83249 -1.1414037 3.9478261 4289838533
102.88422 -1.1856005 3.9573672 4292865779
102.96979 -1.2342283 3.9726367 4293325560
103.03686 -1.2811227 3.9848213 4292141286
103.10812 -1.3288069 3.9978137 4293720317
103.22488 -1.3816466 4.0189414 4294049279
103.92968 0.28034329 4.1148977 4294967295
103.78804 0.23498216 4.0891547 4293719804
103.67101 0.19093822 4.067728 4293193460
103.59198 0.14784637 4.0530443 4294967295
103.68466 0.10478155 4.0688777 4294901759
104.00223 0.061547756 4.1242695 4294901759
102.77853 -0.92789948 3.899631 4294115071
102.1607 -0.92116988 3.7910748 4294180863
102.11092 -0.95512938 3.7824636 4294246399
102.34853 -1.013122 3.8241057 4294180863
102.70667 -1.0882804 3.8850329 4294246399
102.63668 -1.1235081 3.8722274 4294705151
102.66481 -1.1647544 3.8775826 4290167496
102.74966 -1.2127509 3.8924561 4290035910
102.80454 -1.257818 3.9023261 4292141286
102.86971 -1.3042789 3.914026 4293786110
102.95379 -1.3531872 3.9290402 4293983487
103.35276 -1.4354939 3.9994907 4294049279
103.86796 0.1921438 4.0582004 4293851389
103.56207 0.14671554 4.0045185 4294901759
103.88393 0.10484304 4.0596566 4294967295
103.21143 -1.1324035 3.9305446 4294377471
102.54984 -1.1149026 3.8167069 4294508543
102.4645 -1.1458273 3.8023422 4294508543
102.51723 -1.1899341 3.8115573 4292930802
102.57345 -1.2344733 3.821506 4288851636
102.63161 -1.2795479 3.8318355 4292470251
102.70015 -1.326226 3.8439116 4293786110
102.90541 -1.3876278 3.8796568 4294049279
102.82867 -1.138885 3.8235135 4294443007
102.31424 -1.1318096 3.7366445 4294508543
102.33207 -1.1720619 3.7398596 4294443007
102.36953 -1.2141734 3.7465096 4293457144
102.42085 -1.2579042 3.7555523 4291812321
102.48347 -1.303189 3.7665179 4290628047
102.55871 -1.3491497 3.7801611 4293457146
103.07625 -1.4494187 3.8658752 4294049279
102.81554 -1.1754988 3.7808986 4294443007
102.33627 -1.1710447 3.70117 4294443007
102.26212 -1.2024798 3.6891186 4294246399
102.27158 -1.2420958 3.6909039 4293917695
102.28868 -1.2822084 3.6941626 4293391353
102.35229 -1.326139 3.7057917 4290233289
102.43174 -1.3716927 3.7203813 4292075493
102.67607 -1.4370302 3.7620296 4293983487
103.39114 -1.5456532 3.8882916 4293852415
103.96457 0.42854229 3.939049 4292799211
103.44051 -1.3132529 3.8433735 4294246399
102.44834 -1.2593327 3.6801937 4294049279
102.21567 -1.2746873 3.6424296 4293917695
102.17033 -1.3061075 3.636481 4293522939
102.21066 -1.3477035 3.6440623 4292009700
102.32063 -1.3970879 3.6632156 4289838531
102.51308 -1.4519142 3.698396 4292734193
103.08205 -1.5679992 3.7865303 4293655294
103.85491 0.42668822 3.8763394 4294967295
102.95743 -1.3494656 3.7224767 4294049535
102.24303 -1.3100842 3.6105571 4294049279
102.07567 -1.3292085 3.5848532 4294049279
102.14896 -1.373871 3.5979979 4293851903
102.27921 -1.426626 3.6197579 4290036680
102.41282 -1.4877278 3.6380455 4291352540
102.51807 -1.5424671 3.653723 4292997365
102.88448 -1.6234779 3.7152674 4293721087
103.6333 -1.76504 3.8318579 4293852671
102.72884 -1.4015422 3.6478367 4294180863
102.31499 -1.3964558 3.5826671 4294049279
102.25321 -1.4296201 3.5726886 4293786879
102.2247 -1.4697181 3.5659075 4292536814
102.28827 -1.5161228 3.5762992 4288786613
102.42495 -1.5740151 3.5968814 4292142056
102.57712 -1.6342767 3.6201036 4293983999
102.82434 -1.7060404 3.659411 4293918463
103.70242 -1.8557824 3.8028569 4293786879
103.82269 -2.0725098 3.8026032 4293983999
103.59629 -2.0831957 3.7667747 4293983743
102.98122 -1.5187017 3.6420457 4293983999
102.16729 -1.4660941 3.5155184 4293918463
102.14165 -1.4981759 3.514081 4293655294
102.22623 -1.5499524 3.5257111 4291813091
102.36104 -1.6079273 3.5454314 4290036680
102.4777 -1.6627157 3.5634534 4291220954
102.57529 -1.716239 3.5781271 4292997365
102.65003 -1.7677132 3.588908 4293326330
102.78937 -1.8257617 3.6118052 4293523709
102.86223 -1.878855 3.621644 4293786879
102.65836 -1.9007947 3.58165 4293983999
103.15013 -2.0162704 3.6550722 4293983999
102.59474 -1.5169969 3.5402865 4293984255
102.09869 -1.4923272 3.468684 4293984255
102.10168 -1.5346628 3.4671936 4293852671
102.1679 -1.5836179 3.4760978 4293721085
102.26827 -1.6354795 3.4914882 4291549919
102.3615 -1.6875178 3.5054238 4288918199
102.42025 -1.7354486 3.514138 4290431438
102.52924 -1.7886838 3.5320296 4292799986
102.47276 -1.8239529 3.5210986 4293589502
102.36108 -1.8517886 3.5009196 4293852159
102.38114 -1.8941441 3.5041862 4293917951
102.27019 -1.9213428 3.4836485 4293589502
103.07526 -2.0881341 3.6013772 4291681766
103.15593 -1.6162773 3.5885143 4293984255
102.16293 -1.5428529 3.4365878 4293983999
102.05059 -1.569774 3.4185226 4293918463
102.08733 -1.6121761 3.4248192 4293918463
102.16137 -1.660699 3.4359672 4291155161
102.24221 -1.7100905 3.4485264 4287602339
102.37755 -1.7665211 3.4699891 4287733925
102.28713 -1.7985386 3.452508 4291549919
102.30186 -1.8432009 3.4520438 4293128437
102.52683 -1.9155524 3.4856188 4293326072
102.57271 -1.9661864 3.4890842 4293326071
102.93353 -2.0637033 3.5405931 4291483871
102.02845 -1.568308 3.3751698 4294115327
101.8962 -1.5872238 3.3580062 4293918463
101.96256 -1.633662 3.3682196 4293786879
102.04671 -1.6826854 3.3812296 4293523709
102.21008 -1.7420763 3.4066849 4291484126
102.11108 -1.7719196 3.3885932 4286878616
102.14761 -1.8181623 3.3921874 4290760145
102.33337 -1.8850479 3.4187663 4291220696
102.42278 -1.9404343 3.4295735 4290760145
102.83137 -2.044188 3.4876142 4290694355
103.99359 -2.2693334 3.6536629 4290365391
103.84279 -1.7918872 3.5985079 4294246399
101.90633 -1.5871319 3.3218834 4294049791
101.85047 -1.6175846 3.3144348 4293984255
101.88834 -1.6597843 3.3208449 4293852671
102.04124 -1.7179968 3.3437729 4293786879
101.87148 -1.7386788 3.3146892 4292734191
101.87229 -1.7796154 3.3125267 4292602348
102.04547 -1.843866 3.3366885 4291483611
102.24353 -1.9134655 3.3638008 4290233800
102.63112 -2.0128987 3.4181788 4290168011
103.37616 -2.1705389 3.5232341 4289904839
101.95191 -1.6667817 3.2924683 4293918463
101.9505 -1.7052943 3.2922826 4293786879
101.56778 -1.6975583 3.2322023 4293721085
101.54596 -1.7336978 3.2273679 4293589242
101.64848 -1.7867349 3.2409854 4293457656
101.71824 -1.8349664 3.2505143 4293194484
101.99433 -1.9147333 3.2892482 4290036425
102.53284 -2.0374296 3.3641782 4289773255
103.59992 -2.2488787 3.5110824 4289905098
103.92928 -1.9500691 3.5090568 4293918463
102.57195 -1.7912276 3.3382123 4293786879
101.07543 -1.6296194 3.125911 4293721086
100.75169 -1.6220778 3.0786264 4293523450
101.1719 -1.7183105 3.1363199 4293194484
101.79865 -1.8473612 3.2228794 4293194484
102.10641 -1.9326613 3.2646289 4290036425
102.64645 -2.0564015 3.3376207 4289444290
103.79635 -2.2842777 3.4892073 4289247425
103.57547 -1.9834638 3.4217978 4293786876
100.73905 -1.6213467 3.0404129 4293589755
100.94767 -1.6857325 3.0693564 4292602347
101.48311 -1.7995021 3.142864 4290825936
101.72945 -1.8737859 3.17625 4289970632
102.18916 -1.9838572 3.2369556 4289115582
103.4419 -2.2267497 3.3986793 4288786618
101.38409 -1.7127532 3.0906305 4293721340
101.1012 -1.7066246 3.0551436 4293457656
101.41755 -1.7889178 3.0975733 4293128691
101.6387 -1.8591758 3.1269491 4291549663
102.03058 -1.9582657 3.1775937 4288720826
103.18873 -2.186512 3.3220968 4288194739
102.16332 -1.8210365 3.1567032 4293721340
101.27804 -1.7321628 3.0417154 4293786620
101.48407 -1.7987736 3.0688219 4293458169
101.71131 -1.8705175 3.0979233 4292931831
102.15965 -1.979334 3.1537311 4288392118
103.29185 -2.2040334 3.290961 4288063153
100.93267 -1.6781709 2.9653952 4293786620
101.10919 -1.7400472 2.9875073 4293589499
101.39127 -1.819553 3.0222526 4293063417
101.90202 -1.937458 3.0841403 4288457911
103.12772 -2.1760261 3.2297716 4288128946
103.82249 -2.3371143 3.3073261 4287865774
103.13807 -2.2670512 3.2237806 4288063153
103.37427 -2.3493958 3.2520127 4288786874
102.38789 -1.8925946 3.1054943 4293786620
101.53864 -1.8031545 3.0047374 4293721083
101.65542 -1.8587493 3.0185082 4293129210
101.95081 -1.9423683 3.0545583 4288589497
102.76714 -2.1107607 3.1535139 4288128946
102.79146 -2.1625993 3.1475546 4287865774
102.60535 -2.1761253 3.1205549 4287997360
102.64429 -2.2228057 3.1256125 4287997358
104.00004 -2.4982691 3.2851264 4291352539
103.90919 -2.2893996 3.2508965 4288260532
102.64914 -2.1378634 3.0913742 4287931567
102.46071 -2.1510105 3.0640123 4287799981
102.52186 -2.2011368 3.0714111 4287800237
103.0873 -2.3389382 3.1367342 4287932588
102.73734 -2.1510696 3.0618496 4287865774
102.48849 -2.1549599 3.0273476 4287799981
102.45425 -2.1893044 3.0233784 4287471786
102.78782 -2.2861686 3.0619781 4286684062
103.22519 -2.4031286 3.1124525 4286684319
98.245186 -1.2694405 2.536128 4293852414
99.194275 -1.5296783 2.645539 4288260532
102.52011 -2.1118534 3.0018017 4287865774
103.73367 -2.3574972 3.1303499 4287734188
103.5163 -2.3649654 3.1057882 4287537579
103.83616 -2.4620035 3.142936 4286683807
103.63953 5.0469909 3.1019495 4293721082
103.8657 -2.0446632 3.1306732 4293852926
100.31018 -1.742447 2.7358148 4287997359
103.46146 4.9866195 3.0390141 4291025115
103.06872 -1.9322355 2.9992485 4293983998
103.47508 4.9912515 2.9977572 4289118146
100.46427 -1.5935916 2.6862853 4294245887
103.63496 5.0459752 2.9695151 4286749857
102.7939 -2.0159926 2.8903584 4288786612
102.9987 -2.1723576 2.9130044 4287931818
103.97894 5.1634259 2.9575605 4285369232
103.83029 5.06708 2.9485326 4285435025
103.60777 -2.2299581 2.8405998 4287471523
102.83137 -2.0693808 2.7219143 4287735720
102.81258 -2.1080875 2.7199936 4287538086
102.66866 -2.0524499 2.6520262 4287211176
103.28647 -2.1900232 2.7073178 4287210663
102.4248 -1.9804986 2.5785935 4285237131
102.03679 -1.9546502 2.5577519 4287079334
103.393 -2.206708 2.6737521 4287275943
102.54485 -1.9938285 2.5577662 4285104263
102.52506 -2.0282633 2.5622675 4287209639
102.02522 -1.8324444 2.3305323 4283855739
103.3131 -2.1419885 2.3917859 4285760907
103.87294 -2.2374856 2.3596528 4285892748
103.87342 -2.1482069 2.3162479 4283591794
101.40848 -1.8159332 2.1817429 4283854194
101.51949 -1.8705893 2.1872864 4286617244
102.44882 -2.0563264 2.2359309 4287209120
101.63776 -1.8138121 2.1546385 4283526001
100.52033 -1.6806103 2.0979488 4283722610
100.68622 -1.7405187 2.1081414 4287275686
101.42008 -1.8920287 2.1462741 4286945947
103.44526 -2.2569096 2.2506595 4286813589
100.92397 -1.7064253 2.0841997 4283328365
100.26365 -1.6410058 2.0530462 4283656559
100.48193 -1.7085266 2.0646453 4287340963
101.09016 -1.8387258 2.0972319 4286879640
102.94234 -2.1739118 2.1899929 4286878868
100.9209 -1.7057098 2.0501766 4283262572
100.28433 -1.6439948 2.0219254 4283130212
100.50253 -1.7115368 2.0330517 4286945945
101.12032 -1.8427312 2.0667059 4286944919
102.94168 -2.1716878 2.1579025 4286878867
101.82349 -1.8408817 2.0540483 4283131243
100.65334 -1.7006284 2.0040162 4283064418
100.80573 -1.7589563 2.0120592 4286814358
101.45253 -1.8953172 2.0470059 4286944917
103.32379 -2.0647779 2.0798128 4283065193
101.27017 -1.7944049 1.9969852 4283130211
101.34335 -1.8424214 2.0007477 4286025100
102.07492 -1.995273 2.0310576 4286879381
103.4486 -2.1243207 2.0557451 4283064420
102.6655 -2.0463173 2.0242043 4285103741
103.24262 -2.1807277 2.0356615 4286879381
102.74301 -2.0175612 1.9870017 4282933090
102.11551 -1.9622182 1.9596466 4285038205
102.42245 -2.0513766 1.9628086 4286879124
103.9446 -2.2018449 1.9815395 4283064420
102.8481 -2.0772028 1.9394808 4284972412
102.86806 -2.1225173 1.9348651 4286747538
99.424423 -0.32976684 1.7185516 4285892752
102.42128 -0.48523957 1.7866613 4287077026
92.119354 -0.038139448 1.5416648 4284708734
94.779388 -0.14943774 1.5950187 4285629580
97.818474 -0.29261521 1.6550828 4287011746
99.827667 -0.40771532 1.692361 4286090903
102.97202 -0.58905607 1.7525183 4283986812
100.86061 -0.38517272 1.6847136 4285629580
99.400337 -0.35854146 1.6577953 4287011746
101.17568 -0.46773216 1.6862756 4285959832
102.62002 -0.57175422 1.70802 4283921274
103.50661 -2.1815412 1.7371273 4284512634
103.39387 -2.2069669 1.7267352 4286156173
103.40324 -0.60897177 1.6804825 4283855481
103.85106 -2.2353952 1.701144 4284316283
103.69562 -2.2550418 1.693084 4285959048
102.04431 -0.54438287 1.6229662 4283921274
103.15247 -0.76888609 1.6373421 4284315775
102.72694 -0.7841332 1.63088 4284841087
103.21773 -0.85749781 1.6363064 4287735465
102.69547 -0.86362511 1.6279931 4287143071
103.12092 -0.93478245 1.6313666 4286222483
102.09166 -0.90081286 1.6204734 4284380019
103.74825 -2.2638929 1.655553 4285761668
101.61317 -0.67729551 1.5823123 4284184190
102.91505 -0.79640067 1.5928534 4284709501
103.43912 -0.87253046 1.5972713 4287669671
103.48346 -0.91919607 1.5983937 4287011997
103.96458 -0.99688023 1.6019827 4285695882
101.85024 -0.88452578 1.5852399 4284577142
102.32887 -0.96016687 1.5893172 4284445812
103.84998 -2.2805545 1.6154824 4285695875
102.40453 -0.68539971 1.5505201 4283723639
102.77784 -0.74787068 1.552748 4284184189
103.74115 -0.84900606 1.5573394 4284775294
103.98421 -0.95421386 1.5591403 4286945947
103.28974 -0.99266255 1.5565531 4284840315
103.14075 -1.0243466 1.5570678 4284511349
102.68478 -0.70222557 1.5119369 4283657331
103.5292 -0.79348737 1.5141449 4284118139
103.8484 -1.0793777 1.5160674 4284445558
103.67435 -2.4758382 1.1738073 4285167989
102.90555 -2.381078 1.1797241 4282274645
102.69082 -2.3387356 1.1294388 4282274643
103.85046 -2.4996367 1.0592266 4285101934
102.50196 -2.3005626 1.0814297 4282800984
102.6175 -2.0380993 1.0473123 4283851095
103.46671 -2.2162843 1.0273122 4286022262
103.14868 -2.3798051 1.0413638 4285035625
102.58659 -2.3207543 1.0524915 4282471506
102.00617 -1.9414723 1.0244297 4283916884
101.83139 -1.9511688 1.0267738 4285561709
103.3021 -2.4109018 1.0054399 4284772197
103.12546 -2.4224799 1.0113076 4282536784
103.49917 -2.1728134 0.92989516 4284114262
103.89185 -2.5166004 0.9492113 4284904299
103.87304 -2.557965 0.95050025 4282536785
103.8022 -2.5012438 0.90752155 4285298543
103.83228 -2.5511389 0.90734398 4282536528
103.72254 -2.4870446 0.86463183 4285429873
103.64159 -2.5168672 0.86842287 4283259736
103.05679 -2.1199133 0.55093431 4284640350
102.33109 -2.0458319 0.59778696 4285559913
102.43661 -2.1014423 0.58889717 4285624934
102.65565 -2.1764877 0.57256585 4285230176
101.84532 -1.8942275 0.5940966 4284310869
101.44104 -1.8688101 0.6210627 4284771163
101.5147 -1.916889 0.61491776 4285953899
101.68914 -1.9815433 0.60150146 4285624934
101.80761 -2.0382931 0.59230632 4285164383
101.55244 -2.0344536 0.61102211 4285098592
101.37282 -2.0417011 0.62411118 4285230178
101.40645 -2.0844755 0.62174326 4285295971
101.8965 -2.2078118 0.58729053 4284770651
103.83622 -2.5944262 0.45219481 4284310869
103.29362 -2.0743194 0.45230108 4284245586
101.75842 -1.8803502 0.56060302 4284244559
101.73254 -1.9139538 0.56191289 4284704598
101.85181 -1.9703271 0.55253327 4285558628
101.96738 -2.0266893 0.54319781 4285032027
102.05469 -2.0792334 0.53607363 4284703578
101.41126 -2.0121472 0.58528006 4284637529
101.43022 -2.0524948 0.58400422 4284703580
101.49265 -2.10041 0.57943517 4284901214
101.79377 -2.1909277 0.55769068 4284573015
102.66259 -2.3857753 0.49575427 4284376661
102.71545 -1.9886888 0.45370293 4284574805
101.97776 -1.9144704 0.50621158 4284574036
101.99337 -1.9551921 0.50451082 4284573012
102.11648 -2.0129473 0.49451074 4285625191
102.26849 -2.0758781 0.48197228 4285624936
102.34247 -2.1271248 0.47562018 4285624938
101.53336 -2.0336394 0.53994447 4285822317
101.58363 -2.0796123 0.53615677 4286414711
101.67406 -2.1327488 0.52916867 4286941566
101.94387 -2.2183285 0.50897348 4284835928
102.78988 -2.4101286 0.44708702 4284376659
102.68594 -1.9852711 0.41560549 4284706644
102.18661 -1.9471588 0.45150608 4284705621
102.21321 -1.9901956 0.44890824 4285034330
102.33559 -2.04849 0.43863103 4288126860
102.51109 -2.1157825 0.42372268 4288126095
102.56717 -2.1648102 0.41859835 4287863438
101.62644 -2.0503929 0.49626279 4287797646
101.70047 -2.100662 0.49044311 4287863440
101.81611 -2.158469 0.48115516 4287534217
102.09724 -2.2464561 0.45926359 4284770648
102.91315 -2.4334097 0.39732221 4284376658
102.67174 -1.9828364 0.37482154 4284772173
102.23367 -1.9544761 0.40786776 4284706130
102.36637 -2.0148137 0.39736608 4285363807
102.51542 -2.0779781 0.38482177 4288258445
102.74316 -2.1542242 0.3651481 4288126607
102.86311 -2.2144361 0.35466078 4287995535
101.97169 -2.1091471 0.4310371 4287929743
102.00291 -2.1534548 0.42894277 4287863952
102.07719 -2.2052577 0.42310524 4287469194
102.377 -2.2973788 0.39895919 4284903005
103.33071 -2.5105281 0.32424477 4284574293
103.17818 -2.0598433 0.29194799 4284641357
102.71156 -2.0297155 0.33011246 4284903765
102.6759 -2.0646944 0.33278185 4285495394
102.79716 -2.1241422 0.32189941 4288127373
103.09454 -2.2124517 0.29567572 4288061327
103.28404 -2.28496 0.27874205 4287995535
102.84453 -2.2555826 0.31809777 4287929743
102.67847 -2.2691307 0.33295676 4287864208
102.63851 -2.3032343 0.33671102 4287469450
103.01115 -2.4097583 0.30531353 4285034591
103.23015 -2.0673919 0.24411295 4284509515
103.03632 -2.0797012 0.2605772 4284640850
103.10802 -2.132643 0.25431201 4285166943
103.40327 -2.2211301 0.22805007 4288061838
103.35644 -2.0865469 0.18980639 4284246602
102.90032 -2.0584388 0.2297654 4284312400
102.93356 -2.1047757 0.22650656 4284575319
103.20634 -2.1888325 0.20098077 4287996302
103.95319 -2.1760521 0.09067779 4284311367
103.07208 -2.0849271 0.17188212 4284246094
103.00629 -2.1161973 0.17761415 4284312147
103.2062 -2.188518 0.15766072 4288061840
103.32198 -2.4113767 0.13562591 4287600526
102.84639 -2.3717043 0.18182042 4285561192
102.73657 -2.3927054 0.19114605 4284311122
103.60325 -2.1237631 0.079250433 4284442955
102.87744 -2.0552251 0.14806448 4284509007
102.80739 -2.0849614 0.15410364 4284706391
102.8923 -2.1381288 0.14432675 4288061583
103.86642 -2.3375456 0.050915297 4288061844
101.4558 -2.0880241 0.27343619 4287534733
101.26758 -2.0925751 0.29216313 4284969057
101.38146 -2.1496806 0.28105146 4284245586
102.88603 -2.4622636 0.13682899 4284376910
103.9466 -2.1752415 0.00093362958 4284574283
102.99225 -2.0728958 0.094770782 4284509007
102.88167 -2.096597 0.10500176 4284640853
102.99339 -2.1544442 0.092562325 4287995791
103.42089 -2.262661 0.047176756 4287996052
101.66772 -2.1265864 0.21695304 4287600527
101.17562 -2.0764799 0.26459399 4285363818
101.32012 -2.1387556 0.25003591 4284179796
102.77446 -2.4420977 0.10640021 4284113741
103.4474 -2.1444414 0.0078363763 4284443214
103.29382 -2.1627204 0.022776349 4284706390
103.38619 -2.2184675 0.011779366 4287864205
103.18798 -2.222182 0.024567589 4287929746
103.56918 -2.3192143 -0.023061153 4287864468
102.44167 -2.2635632 0.10245578 4287732371
101.65755 -2.1635203 0.18080206 4286285176
101.80614 -2.2280669 0.16555208 4284179797
102.91821 -2.4699442 0.052147873 4283982157
103.79887 -2.1992733 -0.071850345 4284639826
103.66817 -2.2224517 -0.058528204 4285955689
103.62991 -2.2569716 -0.05762352 4287732363
103.20787 -2.2217727 -0.023923401 4287864209
103.57411 -2.3143971 -0.072846107 4287930006
102.1886 -2.260087 0.089821354 4286877314
102.17258 -2.2965777 0.091459736 4285956979
102.68186 -2.4290309 0.03783055 4283982671
103.49868 -2.6211681 -0.048787694 4283982664
103.83892 -2.1572914 -0.12478514 4284376906
103.56091 -2.1588464 -0.094785966 4284771413
103.58612 -2.2062602 -0.097408757 4287008635
103.85661 -2.2907746 -0.12861572 4287797643
103.77544 -2.3088846 -0.13271856 4287995283
101.75349 -2.1847894 0.099004999 4287469710
101.70278 -2.2134018 0.10409366 4286285691
101.76225 -2.2619767 0.09738145 4284246102
101.89455 -2.3238068 0.082008645 4283852105
102.70609 -2.5157766 -0.0056038285 4283852101
103.75408 -2.1437891 -0.16088895 4284376654
103.66134 -2.1731367 -0.15095635 4285824362
103.78687 -2.236304 -0.16502649 4287403397
101.44286 -2.1317234 0.097137079 4287864984
101.53674 -2.1851265 0.086014926 4287865239
101.64716 -2.2424984 0.073465928 4285364844
101.7747 -2.303236 0.058429848 4283852111
102.56511 -2.491374 -0.028620394 4283654724
103.87926 -2.1632202 -0.21917115 4284574034
103.86844 -2.2055874 -0.21819603 4286679672
101.36808 -2.1203012 0.07004229 4287667605
101.54729 -2.1884997 0.048565399 4287799447
101.67233 -2.2483332 0.033772279 4287009927
101.83108 -2.3151233 0.015036676 4283588940
102.60554 -2.4993162 -0.073860742 4283523652
103.89431 -2.1649024 -0.26637053 4284771414
103.9765 -2.2218676 -0.27599308 4287008123
101.67854 -2.1773307 -0.0015085494 4287535763
101.83178 -2.2413716 -0.020877633 4287667862
101.94018 -2.2988281 -0.034260675 4286615169
102.10458 -2.3673773 -0.054204013 4283523146
102.85266 -2.5428703 -0.14749859 4283523393
103.89662 -0.96535528 -0.31649509 4287531896
103.40588 -2.0886674 -0.25507137 4284836948
103.57801 -2.1579821 -0.27578378 4287271036
102.11752 -2.2544017 -0.093335025 4287470226
102.02266 -2.2751005 -0.083325453 4287273103
102.10204 -2.327827 -0.093533665 4286088825
102.42613 -2.4275103 -0.13209699 4283588935
102.97707 -2.5613267 -0.20974852 4283523392
103.76555 -0.91135854 -0.34568122 4286676590
103.55747 -0.94192487 -0.31942937 4287400054
103.69367 -0.9936465 -0.33640152 4286807916
103.265 -2.0255063 -0.2807059 4284244808
102.76579 -1.9920597 -0.22005436 4284705619
102.88215 -2.0506587 -0.23464774 4286941813
103.11034 -2.1274559 -0.26299709 4287534466
103.59858 -2.2461829 -0.32410577 4287732365
102.19722 -2.2275226 -0.14456002 4287469972
101.51707 -2.1470215 -0.060199678 4287470226
101.69759 -2.2153761 -0.083937451 4287207823
101.7538 -2.2627454 -0.09169329 4285629041
101.85354 -2.3184476 -0.10495447 4283589191
102.60213 -2.4867299 -0.20953074 4283523391
103.64724 -0.90280604 -0.37532705 4286084196
103.75115 -0.95461005 -0.38797078 4286478952
103.91632 -1.009679 -0.4088366 4286018399
103.09065 -2.0012214 -0.30063191 4284047168
102.88016 -2.0104253 -0.27501658 4284704848
102.91501 -2.056782 -0.27973181 4287007603
103.00491 -2.1126592 -0.2908124 4287797382
103.25578 -2.1936092 -0.32312664 4287732107
103.90674 -2.3401971 -0.40658787 4287797903
102.71915 -2.2697763 -0.25761214 4287601554
101.95856 -2.184516 -0.15578209 4287536019
101.85539 -2.205987 -0.14167312 4287339408
101.98637 -2.2671685 -0.15893739 4287274126
102.01168 -2.3101087 -0.16257372 4285234793
102.11293 -2.3674455 -0.17568734 4283523911
102.85716 -2.5353537 -0.28207788 4283457853
103.95013 -0.92304659 -0.45863128 4285623645
103.29371 -2.0318234 -0.36881921 4283323694
103.04854 -2.0366526 -0.337879 4283783989
103.02139 -2.0743871 -0.33436316 4287008109
102.97472 -2.1094105 -0.32792175 4287534203
102.8642 -2.1339414 -0.31326193 4287534210
102.3036 -2.0866241 -0.23888874 4287797900
102.23299 -2.1141572 -0.2301611 4287732880
102.25374 -2.1556952 -0.23411089 4287667601
102.06989 -2.1643047 -0.20987259 4287339151
102.09924 -2.2090476 -0.21304192 4287404943
102.13818 -2.2554514 -0.21763884 4287339148
102.2221 -2.3093116 -0.22890778 4287142021
102.25245 -2.3542705 -0.23286843 4284708700
102.29032 -2.4005516 -0.23807932 4283392322
103.24517 -2.6111634 -0.37127879 4283326522
103.63477 -2.0826182 -0.45658496 4283257132
103.24643 -2.0671194 -0.40582821 4283651634
103.14894 -2.0949934 -0.39266101 4283652408
103.04108 -2.1211643 -0.3777104 4283783743
102.86845 -2.1362112 -0.35431501 4284442191
102.36772 -2.0980165 -0.28668103 4286745204
102.25973 -2.1193352 -0.27297893 4287140736
102.27028 -2.1595056 -0.27536675 4287009408
102.1636 -2.1813457 -0.26078218 4286943873
102.26424 -2.2382276 -0.27397412 4287601802
102.34525 -2.292326 -0.28448731 4285562469
102.42377 -2.3458991 -0.29521444 4281089312
102.46528 -2.3934972 -0.3007437 4282997561
102.53683 -2.4468191 -0.3103666 4283260729
103.48981 -2.6631005 -0.4406735 4283457591
103.63526 -2.1258981 -0.50108665 4283847988
103.29401 -2.1184838 -0.45396584 4283915066
103.0967 -2.1314204 -0.42633635 4283915069
102.87517 -2.1390264 -0.3956421 4283916097
102.44716 -2.1120992 -0.33677939 4284311368
102.3664 -2.137866 -0.32664955 4285429595
102.39326 -2.1810484 -0.33128524 4285101144
102.30112 -2.2057166 -0.31836 4284574802
102.44311 -2.2697511 -0.33785072 4284640338
102.54705 -2.3282254 -0.35191011 4283916867
102.62623 -2.3824537 -0.36301917 4282930994
102.71249 -2.4386432 -0.37491849 4282996783
103.03556 -2.5398207 -0.41843194 4283194673
103.01574 -2.0793986 -0.45588833 4284112188
102.38715 -2.0244303 -0.36776575 4284507205
102.23359 -2.0394378 -0.34680459 4284442690
102.11559 -2.059113 -0.3309328 4284377664
102.10291 -2.0943706 -0.33059564 4284904523
102.39497 -2.1812994 -0.3719888 4284641095
102.48342 -2.236985 -0.38365465 4284377414
102.6549 -2.3074522 -0.40695968 4284376649
102.79569 -2.3725762 -0.42687958 4284180036
103.00003 -2.449713 -0.45585957 4283851323
103.41008 -2.5644896 -0.51447886 4283851573
101.29726 -1.8558385 -0.25301489 4284177980
101.24802 -1.8829283 -0.24732432 4284507709
101.27448 -1.9224938 -0.2519787 4284705857
101.42384 -1.9827697 -0.27381921 4284771907
101.84956 -2.0910368 -0.33418015 4284837700
102.65687 -2.2658069 -0.44960415 4284640580
103.07931 -2.3808491 -0.50856531 4284508484
103.52117 -2.5024898 -0.56966513 4284377410
103.77998 4.6160831 -0.66605562 4286609760
103.64124 4.5290689 -0.64641362 4286676324
103.69019 4.4997053 -0.65345073 4286609762
101.69703 -1.8783935 -0.3495737 4284177209
100.85636 -1.7835375 -0.22928621 4284242745
100.91087 -1.8266983 -0.23774751 4284308534
100.96012 -1.8690299 -0.24572748 4284770109
101.03882 -1.9167248 -0.25782982 4284638780
101.15567 -1.9716389 -0.27519464 4284968000
101.64574 -2.0898311 -0.34749338 4284704831
103.85735 4.7295246 -0.7221058 4285952088
103.51278 4.5775776 -0.67153633 4286280539
103.38085 4.4935961 -0.65136111 4288780671
103.35503 4.4424877 -0.64732438 4288056436
103.38304 4.4074779 -0.65180236 4286806627
101.18426 -1.7989749 -0.31306604 4284307769
100.94457 -1.7977042 -0.27779686 4284242233
101.04411 -1.8484793 -0.2928941 4283847726
101.1075 -1.8935255 -0.30306125 4287927403
101.17151 -1.9392262 -0.31322205 4285164609
101.26151 -1.9899805 -0.3270019 4285164608
101.44106 -2.0558448 -0.35461593 4284704313
102.83768 -2.3359094 -0.56043273 4284573496
103.46857 4.5645747 -0.70734793 4286281309
103.34662 4.483613 -0.68864912 4286609760
103.2989 4.4257083 -0.68169844 4286214232
103.2189 4.3578672 -0.67083812 4286740576
103.3135 4.3420329 -0.68739241 4287004007
103.43093 4.3329363 -0.70627111 4286674530
103.84479 4.4105358 -0.76844954 4286806886
101.26891 -1.8125347 -0.36216176 4284503610
101.05935 -1.8162327 -0.3306776 4284503864
101.1551 -1.8667065 -0.34551901 4285754441
101.21119 -1.9108495 -0.35479721 4288715638
101.27139 -1.9562401 -0.36455062 4286479188
101.35035 -2.0054295 -0.37693128 4286939739
101.52033 -2.0703046 -0.40331027 4284703545
102.71361 -2.3172736 -0.58103585 4284310324
103.39211 4.5405235 -0.74000812 4285951828
103.22507 4.4455433 -0.71475542 4287070567
103.16412 4.3840199 -0.70551395 4288912261
103.08024 4.3155899 -0.69343835 4286082905
103.20374 4.3087049 -0.71484137 4285621843
103.31981 4.3001461 -0.73270226 4286346079
103.66508 4.3583126 -0.78505987 4286872681
101.54738 -1.8555419 -0.4416641 4284569144
101.14069 -1.8294258 -0.37921745 4284437812
101.21814 -1.8772937 -0.39147991 4284306225
101.26188 -1.9195235 -0.39908722 4284240944
101.31281 -1.9636078 -0.4075239 4284044078
101.38983 -2.0125434 -0.41986912 4284175664
101.60205 -2.085484 -0.45263466 4284045103
102.50414 -2.2861702 -0.58584607 4284045872
103.26469 4.4995461 -0.7663129 4286017621
103.06639 4.3958106 -0.73471045 4285952087
102.9836 4.3281722 -0.72172803 4285293390
102.90589 4.2626262 -0.70943999 4285490512
103.13258 4.2881641 -0.74530256 4285556566
103.38188 4.3192902 -0.78420222 4286148446
103.70724 4.3713799 -0.83462483 4287136367
103.86348 -2.2104802 -0.84150696 4284569145
101.29789 -1.8544053 -0.44015861 4284503605
101.08933 -1.8572251 -0.4079324 4284372018
101.0843 -1.8911946 -0.40800142 4284438323
101.12666 -1.9334825 -0.4151262 4284175407
101.12138 -1.9681939 -0.41468889 4284109358
101.67599 -2.1013315 -0.49966425 4284044334
103.166 4.4683528 -0.79470032 4285491286
103.0462 4.3890471 -0.77504349 4285622618
103.01337 4.3372045 -0.76881868 4284964684
102.94746 4.2754254 -0.75762469 4284569669
103.30745 4.3408985 -0.81495863 4285885790
103.50293 4.3557529 -0.84573919 4288188803
102.41198 -2.028821 -0.65451074 4284831295
100.75535 -1.8071649 -0.3889814 4284765499
100.60976 -1.8177754 -0.36626872 4284765755
100.66094 -1.8599664 -0.37496966 4285357891
100.73643 -1.9069461 -0.38727182 4284239921
101.59682 -2.0917444 -0.52219272 4284109358
103.06535 4.5222859 -0.82053787 4285096015
102.77185 4.3875098 -0.77334428 4285096015
103.10175 4.4483709 -0.82710201 4285425493
103.19706 4.4356251 -0.84170663 4285623645
103.29575 4.4234042 -0.85674739 4286477671
103.38004 4.4061904 -0.86957592 4288846218
103.76939 4.4793782 -0.93232846 4291676089
103.80284 4.4450407 -0.93720412 4285689184
100.77184 -1.8081882 -0.42835021 4285093439
100.42841 -1.7872683 -0.37273422 4285159231
100.4025 -1.8164778 -0.3688651 4286014539
100.52336 -1.87079 -0.38840282 4285028156
101.91552 -2.1480629 -0.6106109 4284174383
103.16846 4.5986018 -0.87841994 4285687635
102.69309 4.405129 -0.80005264 4285358929
102.62691 4.3429599 -0.78927404 4285556566
103.0018 4.4182448 -0.85146344 4286676331
103.13736 4.4179931 -0.87339467 4287005299
103.34475 4.4388933 -0.90706831 4291149746
103.48684 4.4389834 -0.92970127 4286149479
103.79172 4.4867425 -0.9794541 4283058494
103.75233 4.4308925 -0.9722293 4282729531
101.28426 -1.8900726 -0.54842073 4285027903
100.76982 -1.8434536 -0.46312082 4284764473
100.86781 -1.8941346 -0.4796488 4284698679
101.28402 -2.0008683 -0.54733229 4284633398
103.68439 5.6978474 -1.0000224 4284243512
103.37915 4.7086673 -0.95805675 4286016084
102.95805 4.5312929 -0.88586515 4285753171
102.75365 4.4247637 -0.85082549 4285621843
102.71398 4.370924 -0.84396148 4287398770
103.03915 4.4306159 -0.89870417 4288978833
103.19461 4.4363041 -0.92453808 4289768864
103.49385 4.4849143 -0.97452092 4283715654
103.81921 4.5397124 -1.028715 4283320383
103.04517 -2.2121425 -0.88193989 4284764474
102.93919 -2.2365389 -0.86397964 4284698680
103.53123 5.7716179 -1.0163629 4284046901
102.03899 5.1459975 -0.76299614 4283981365
101.90111 5.0534477 -0.73929423 4283980595
102.0193 5.060482 -0.75807881 4284111415
102.87994 5.3485913 -0.9050352 4284769089
103.45953 4.9491549 -1.0222349 4285489998
103.34959 4.8684392 -1.0038224 4285752912
103.24017 4.7902069 -0.98242003 4286016084
103.451 4.8176565 -1.0165031 4286016084
103.83244 4.8992271 -1.0802258 4286542428
103.49318 4.7456732 -1.0207261 4286410842
103.24809 4.6243076 -0.97733742 4286345308
102.87648 4.4641633 -0.91260499 4287464047
102.80759 4.4009757 -0.90027052 4288319874
103.03535 4.4301867 -0.93917555 4285689702
103.09951 4.4077621 -0.94988716 4282795067
103.4286 4.4655428 -1.0062799 4282926140
103.10797 5.6458559 -0.99192184 4283980853
101.89617 5.128222 -0.7801562 4283848754
101.54038 4.9513927 -0.71690923 4283650351
101.54314 4.9149361 -0.71669406 4283847473
101.82515 4.9861355 -0.76372939 4285426764
102.52988 5.2163014 -0.88454968 4287136356
103.74556 5.6333241 -1.0978695 4286346073
103.2428 4.9197855 -1.0264657 4285358669
101.7539 4.3751211 -0.76399297 4285424205
101.62698 4.2949276 -0.74032867 4285555533
102.38073 4.5073953 -0.8710168 4285555792
102.98569 4.6659737 -0.97653008 4285950549
103.45103 4.7757578 -1.0570524 4286740066
103.50361 4.7497211 -1.0651442 4286937704
103.34675 4.6564279 -1.0366334 4287530357
103.13705 4.5472941 -0.99900943 4286412134
103.07388 4.4852161 -0.98730534 4282267434
103.40361 4.5455208 -1.0443351 4282729017
103.44246 4.5142326 -1.0507736 4282466359
103.93391 6.0177016 -1.1805533 4283914548
102.82701 5.5380034 -0.97800291 4283848755
102.34206 5.3064075 -0.89129567 4283980083
101.85033 5.0742488 -0.80521703 4284372795
101.802 5.0166516 -0.79700625 4285818958
102.01283 5.0591836 -0.83360994 4288648316
102.51281 5.2104902 -0.92126942 4286675550
103.74934 5.6359301 -1.1409299 4285227337
102.99909 4.8811936 -1.0220675 4285621583
102.00626 4.5005331 -0.84570342 4286740064
101.33118 4.2333555 -0.72550589 4287200871
101.3994 4.2194986 -0.73664498 4287069287
102.24608 4.4633112 -0.88647014 4285885271
102.92839 4.6476645 -1.0076772 4286807145
103.49552 4.7908421 -1.1075963 4288188289
103.80896 4.8488455 -1.1622417 4287794304
103.71709 4.7752724 -1.1450739 4283584323
103.69035 4.7228937 -1.1394603 4282597685
103.76436 4.702323 -1.1517 4282531893
103.34404 5.7432394 -1.1114761 4284044596
102.89709 5.5253758 -1.02932 4284439096
102.32877 5.2619271 -0.92752904 4285358662
102.24693 5.1900144 -0.91299278 4287924335
102.2951 5.1685004 -0.92171329 4287200100
102.50915 5.2096691 -0.96056306 4285489741
103.76372 5.6426978 -1.185625 4286346075
103.56725 5.1226268 -1.1631328 4286148184
102.21314 4.6122708 -0.91993606 4286542942
101.67152 4.3875146 -0.82256138 4286345562
101.30517 4.2255096 -0.75635225 4287135081
101.4249 4.2288237 -0.77730709 4287924856
102.28192 4.4759536 -0.93165588 4288319615
103.00201 4.672596 -1.0618069 4290491555
103.66283 4.8460579 -1.1804198 4284372295
103.70169 5.8856936 -1.2184483 4285556813
103.35817 5.7075377 -1.1534741 4285622349
102.87269 5.4754791 -1.064016 4289438086
102.80816 5.4087033 -1.0522307 4287595370
102.95759 5.4243908 -1.0795133 4286345561
103.08704 5.4313335 -1.1036487 4285687630
103.52444 5.1947846 -1.2006365 4285292873
102.94557 4.9487486 -1.0936571 4285292617
102.25687 4.6676683 -0.96731025 4285687118
101.69106 4.433187 -0.86319953 4286674270
101.54652 4.3456473 -0.83658445 4287464046
101.32491 4.2329021 -0.79588449 4288517247
101.46745 4.2437077 -0.82156521 4289373074
102.20113 4.4498959 -0.95567304 4286017890
102.99397 4.6707687 -1.1012505 4282860084
103.55048 4.8102894 -1.2027035 4282794293
103.9431 5.8941145 -1.3017437 4285293127
103.85635 5.5345464 -1.3096811 4286410584
103.637 5.4091191 -1.2696882 4285686862
103.49864 5.3145151 -1.2444527 4287331944
103.32668 5.209456 -1.2114979 4284963654
102.35952 4.8224745 -1.0299343 4285424204
101.70774 4.5529895 -0.90661174 4285226567
101.54491 4.4582925 -0.8750208 4286016084
101.3718 4.3606987 -0.84209561 4287002723
101.33989 4.3127337 -0.83549458 4286805857
101.56641 4.3530135 -0.87721318 4290359196
101.52608 4.3015723 -0.86948216 4288649094
101.61773 4.2947068 -0.88614798 4283847234
102.12306 4.4245496 -0.98007202 4282991158
102.90736 4.6428003 -1.1265515 4282465587
103.73827 4.8718553 -1.2811419 4282334001
103.72992 5.4463725 -1.3253205 4285161288
103.48636 5.3120766 -1.282235 4284963909
102.96059 5.07902 -1.1835667 4285029446
102.13972 4.7449021 -1.0274189 4285358412
101.41566 4.4503508 -0.88883007 4286016341
101.05235 4.2863822 -0.81871581 4286476636
100.85044 4.1803913 -0.7796241 4289503888
101.03262 4.2076516 -0.81350243 4291872694
101.54342 4.3458085 -0.90977532 4285951582
101.98934 4.4588914 -0.99388218 4283451451
102.32088 4.5310593 -1.0561595 4282531635
102.77148 4.6406279 -1.1412407 4282334513
103.94112 5.5241308 -1.4094332 4285227338
103.58076 5.3472733 -1.3424108 4285095752
102.83556 5.0351229 -1.1999156 4285556046
101.97794 4.6881204 -1.0345269 4286740834
101.23117 4.3858261 -0.88977247 4288648575
100.81909 4.2053475 -0.80918437 4291346092
100.57725 4.0862246 -0.7617625 4287201908
100.80141 4.1287665 -0.80425614 4282925621
101.53499 4.3435807 -0.94499916 4282662706
102.355 4.5830841 -1.1025734 4282465328
103.4123 4.8971391 -1.3058128 4282268463
103.63453 5.3673701 -1.3959446 4285556559
102.84977 5.041182 -1.2428606 4286609506
102.17654 4.7596402 -1.1112154 4289964952
101.42164 4.4537125 -0.96290231 4289307538
101.09661 4.3030329 -0.89828664 4283715135
100.89989 4.1987672 -0.85890532 4282202157
101.35975 4.3213358 -0.94833499 4282136622
102.65843 4.7269535 -1.2022042 4282071343
102.88996 5.0563388 -1.2914969 4290557344
102.49545 4.8738933 -1.2132158 4285293907
101.78391 4.5821323 -1.0715591 4282268205
101.81625 4.5551596 -1.0774645 4281873705
102.41315 4.7237182 -1.1958253 4281939757
103.92619 5.4291849 -1.5412117 4283648829
103.82545 5.3482985 -1.5208417 4282201898
102.95776 4.9972291 -1.3458432 4281939497
103.33096 5.0857029 -1.4211504 4281873962
103.13223 -3.6559579 -2.3062587 4282923298
103.63309 -3.8294461 -2.4422953 4282923297
103.30717 -3.6675467 -2.3897221 4283647022
102.3859 -3.4619851 -2.1444826 4282791713
102.19981 -3.4495859 -2.0963178 4282791712
102.96616 -3.6887283 -2.3095336 4282923298
103.33533 -3.6773829 -2.4386539 4283647022
102.40647 -3.4726939 -2.1862915 4282923298
101.87609 -3.3716202 -2.0407517 4282923298
101.98351 -3.4362602 -2.0724053 4283910194
103.24217 -3.8057513 -2.4272361 4284239928
103.63221 -3.7580194 -2.5616019 4283054885
102.54799 -3.5138931 -2.262871 4283383850
102.01714 -3.4126842 -2.1159101 4283844401
102.05223 -3.4581137 -2.1279259 4284239158
102.64944 -3.6535366 -2.2984471 4284108342
103.89822 -3.8709393 -2.6809108 4282660385
103.104 -3.7033801 -2.4587502 4282660385
103.05585 -3.730181 -2.4470892 4282923557
103.91176 -3.9954944 -2.6946774 4282923813
103.92042 -3.8564825 -2.8375924 4282790944
103.97336 -4.1300817 -2.8604994 4283250982
102.95855 -3.8856511 -2.5677707 4283645226
102.6644 -3.8424468 -2.4832342 4283513640
103.04276 -3.9928098 -2.5930951 4282987296
103.261 -3.6430724 -2.6876919 4283317544
103.15043 -3.6570201 -2.6551239 4283645998
103.13748 -3.6987519 -2.6492472 4283448875
103.00934 -3.8606286 -2.6224999 4283513640
102.45348 -3.744669 -2.4601007 4283908398
102.21812 -3.717365 -2.3914065 4284040241
102.2527 -3.7644093 -2.4036846 4283119395
102.45691 -3.8650753 -2.4625938 4282790944
102.54508 -3.9314494 -2.4885101 4282791457
102.65614 -4.0047965 -2.521451 4282923043
102.67449 -4.054441 -2.5242305 4282462749
103.35291 -4.2996354 -2.724982 4282529310
103.61448 -3.6869574 -2.8380783 4283119911
102.76308 -3.511405 -2.5851386 4283514411
102.69967 -3.5362682 -2.5661888 4285422665
102.65726 -3.5690553 -2.5514352 4284369978
103.08484 -3.7291021 -2.6746469 4284041524
102.74615 -3.7991893 -2.5771244 4283711276
102.51582 -3.7736759 -2.5100691 4283843120
102.38663 -3.7752352 -2.4733739 4284237622
102.3911 -3.8125978 -2.4779539 4282659871
102.47674 -3.874018 -2.5063727 4282527772
102.42181 -3.8958759 -2.492059 4282856995
102.56518 -3.9792218 -2.5342855 4283514667
102.54046 -4.0167937 -2.523381 4283054117
103.00394 -4.1974649 -2.6614208 4282462749
103.61488 -3.6875856 -2.8818269 4282856483
102.7575 -3.5104492 -2.6245692 4282922276
102.73532 -3.5459566 -2.6178656 4282988325
102.6293 -3.5627887 -2.5833917 4282988325
102.73154 -3.6368787 -2.6095738 4282724896
103.32423 -3.8429997 -2.7834923 4282922276
103.27032 -3.9128287 -2.7679536 4283119911
102.86832 -3.8393013 -2.6504788 4283185704
102.86951 -3.8790874 -2.6524191 4283185703
102.76476 -3.8882613 -2.6229482 4282856482
102.68993 -3.9035199 -2.6040277 4282199064
102.63998 -3.9228451 -2.59482 4282264858
102.52293 -3.9231863 -2.5647085 4283119910
102.72872 -4.0274582 -2.6244195 4283974963
102.77166 -4.0875769 -2.6323245 4283909170
103.25047 -4.2786927 -2.7720184 4283317289
103.14238 -3.6114309 -2.7813833 4282461725
103.02335 -3.6217916 -2.746002 4282461981
102.75144 -3.5969269 -2.6600895 4282593567
102.70319 -3.6291032 -2.6425657 4282659104
102.95928 -3.7418363 -2.7181532 4282659104
103.19483 -3.8481994 -2.7892337 4282527774
103.06966 -3.8574657 -2.7502031 4282791203
102.97982 -3.8738494 -2.7234168 4283251497
103.08445 -3.9426918 -2.7570252 4284501564
103.0171 -3.9626889 -2.7389214 4285027394
102.93554 -3.9766102 -2.7178214 4283646253
102.95744 -4.0147715 -2.7324233 4283383339
102.79327 -3.9994092 -2.6898594 4283119910
103.00272 -4.1072259 -2.7500384 4283777584
103.07297 -4.177916 -2.765142 4283974706
103.48298 -4.3526311 -2.8824739 4283514412
103.76174 -3.8108704 -3.0166402 4282330652
102.80274 -3.6083157 -2.7187934 4282330652
102.44219 -3.5580108 -2.6050932 4283119911
102.5527 -3.6280992 -2.6388364 4284370235
102.57121 -3.6748598 -2.6435943 4282331422
102.72251 -3.7596653 -2.6879766 4282133786
102.99886 -3.879384 -2.7712657 4282725410
103.29111 -4.0014429 -2.862395 4282593824
103.24804 -4.0288644 -2.8515866 4282528031
103.20211 -4.0546231 -2.8404114 4282593567
103.70453 -4.2319169 -3.0032418 4282527773
103.97801 -4.3484783 -3.0932674 4282856739
103.78199 -3.8728428 -3.058583 4282133530
102.81252 -3.6579318 -2.7592828 4282264859
102.78515 -3.690589 -2.7517352 4282330909
102.78156 -3.7309616 -2.7505176 4282134043
103.14241 -3.8734252 -2.8607509 4281936920
103.44809 -4.0036387 -2.9531736 4282067737
103.7825 -4.1393905 -3.0578423 4282067737
103.79953 -4.1875815 -3.0637751 4282133273
103.79051 -4.2272267 -3.0625815 4282133015
103.04911 -3.7191157 -2.8761797 4282133788
103.00413 -3.7472732 -2.863394 4282265372
103.11134 -3.8175213 -2.8975143 4282002457
103.58912 -3.8635721 -3.0884001 4282331166
103.59312 -3.904248 -3.0925682 4282725668
103.85841 -4.0169516 -3.1785874 4284370493
125.39779 0.96045125 0.47425839 4294901760
125.41806 -0.55940205 0.46832043 4294901760
95.453423 -0.95351911 -0.93352997 4294901760
