# .PCD v0.7 - Point Cloud Data file format
VERSION 0.7
FIELDS x y z rgb
SIZE 4 4 4 4
TYPE F F F U
COUNT 1 1 1 1
WIDTH 1110
HEIGHT 1
VIEWPOINT 0 0 0 1 0 0 0
POINTS 1110
DATA ascii
64.411873 0.31391835 0.409917 4285164138
64.647964 0.28369099 0.38508499 4285032552
64.558235 0.24043398 0.39608166 4285164138
64.866081 0.21071599 0.36330417 4285493103
65.13678 0.17816855 0.3346335 4285493103
64.930679 0.12982245 0.35786435 4284572001
65.013229 0.089055419 0.34926 4283387727
65.869247 1.3463033 0.17750819 4285229931
65.567314 1.2705656 0.21344981 4284835173
65.297379 1.1999378 0.24573797 4284506208
65.103874 1.138487 0.26928067 4284440415
64.969406 1.0838195 0.2860316 4284374622
65.022423 1.0473673 0.28142157 4284308829
65.177528 1.0198195 0.26522708 4284308829
65.46701 1.0028287 0.23359697 4284506208
65.366737 0.95139432 0.24623664 4284637794
65.272011 0.90103292 0.25823879 4284703587
65.427925 0.87062478 0.24166405 4284900966
65.652954 0.84468818 0.21741459 4284966759
65.435081 0.78506541 0.2430525 4285164138
65.38398 0.73833066 0.24982786 4285229931
65.230453 0.68541819 0.26837438 4285164138
64.980553 0.62737983 0.29781926 4285098345
64.779228 0.57384998 0.32178345 4284966759
64.647324 0.52547944 0.33784911 4284900966
64.779091 0.49217647 0.32407543 4284703587
64.573311 0.44094416 0.3484939 4284637794
64.234756 0.3842631 0.38772434 4284835173
64.100876 0.33908617 0.40390679 4285032552
64.221481 0.30555719 0.39137101 4285098345
64.482407 0.27687544 0.36300427 4285032552
64.412071 0.23480891 0.37204936 4285164138
64.533417 0.1994151 0.35938647 4285295724
64.661125 0.16351557 0.34598312 4285229931
64.573082 0.11946791 0.35639527 4284440415
64.893028 0.085693724 0.32083759 4283190348
65.376724 1.2923545 0.19075634 4284769380
65.167152 1.2278653 0.21684013 4284572001
64.974968 1.1664238 0.24086677 4284374622
64.846008 1.1123966 0.25747555 4284308829
64.787231 1.0658588 0.26584178 4284374622
64.796196 1.0259067 0.26622146 4284374622
64.802101 0.98557657 0.26689431 4284506208
64.862518 0.94947588 0.26081192 4284966759
64.814476 0.90434819 0.26771209 4285032552
64.83519 0.86508131 0.26658225 4284900966
64.937386 0.83167642 0.25568148 4285229931
65.117035 0.80373377 0.23595604 4285295724
65.144142 0.76358581 0.23387477 4285164138
64.772659 0.69549924 0.27795705 4284966759
64.602257 0.64320678 0.29882351 4284900966
64.60218 0.60296994 0.30005071 4284900966
64.455894 0.55392897 0.31821799 4284835173
64.493813 0.51627314 0.31495982 4284900966
64.562866 0.48001158 0.30803299 4284835173
64.376099 0.4304004 0.33083358 4284900966
64.189522 0.38176277 0.35349399 4284966759
63.973312 0.33298105 0.37958619 4285098345
64.140106 0.30178839 0.3613165 4285098345
64.227837 0.26659885 0.35222185 4285098345
64.280312 0.2297006 0.34721142 4285164138
64.254143 0.18988293 0.35126629 4285164138
64.327751 0.15306953 0.34367263 4284966759
64.450996 0.11559328 0.3298375 4284243036
64.908127 0.085610881 0.27748063 4283190348
65.780106 1.3794277 0.098546624 4284835173
65.070091 1.2586499 0.18480785 4284506208
64.95919 1.2055134 0.1997288 4284440415
64.794724 1.1475449 0.22099331 4284374622
64.639183 1.0914145 0.24111862 4284374622
64.682556 1.0553743 0.23747142 4284308829
64.60347 1.0075206 0.24830022 4284374622
64.636856 0.97026628 0.24565992 4284506208
64.659546 0.93140835 0.24390897 4284835173
64.674744 0.89219743 0.24336371 4284966759
64.607452 0.84620196 0.25263909 4284966759
64.69352 0.81220794 0.24332684 4285295724
64.720139 0.77342057 0.24123393 4285427310
65.027298 0.75473678 0.20570593 4285164138
64.562897 0.68054515 0.26193032 4284900966
64.369072 0.62726945 0.28603235 4284835173
64.340866 0.58597505 0.29059538 4284769380
64.242882 0.54068959 0.30345702 4284835173
64.234093 0.50099283 0.3056134 4284900966
64.012733 0.44975716 0.33300042 4285098345
63.92831 0.40700924 0.34413436 4285229931
63.830399 0.36415595 0.35685486 4285229931
63.875275 0.32821804 0.3525092 4285164138
63.949154 0.2934314 0.34477478 4285098345
64.016846 0.25800878 0.33776456 4285164138
64.065239 0.22159493 0.33305454 4285295724
64.117416 0.18500885 0.32785314 4285164138
64.270073 0.15085006 0.31058964 4284835173
64.468704 0.11551856 0.2874144 4283979864
64.894669 0.08463265 0.23736291 4283321934
65.643486 1.4068946 0.069765091 4284900966
65.12072 1.3054447 0.13541681 4284572001
64.888641 1.238588 0.16540347 4284440415
64.802101 1.1885715 0.17764658 4284506208
64.727829 1.1403083 0.18833359 4284440415
64.554108 1.0825685 0.21111286 4284374622
64.585495 1.0456196 0.20876327 4284374622
64.422264 0.99018639 0.23007408 4284374622
64.408455 0.94920176 0.23306555 4284308829
64.284164 0.89835072 0.24930918 4284440415
64.204765 0.85221958 0.26018947 4284637794
64.388229 0.82800454 0.23898378 4284835173
64.437668 0.79186326 0.23391095 4285098345
64.568489 0.76160181 0.21892981 4285493103
64.436234 0.71172029 0.23618324 4285493103
64.111717 0.64900768 0.27669472 4285098345
64.107338 0.60948175 0.27812767 4284769380
64.172371 0.57487541 0.27137265 4284769380
64.139648 0.53406394 0.27655992 4284769380
64.006172 0.48756403 0.29394203 4284835173
64.001694 0.44878572 0.29552218 4285032552
63.921005 0.40626246 0.30643412 4285164138
63.746845 0.35980183 0.32874376 4285164138
63.765549 0.32293409 0.32743439 4285032552
63.766422 0.28541434 0.32835844 4284966759
63.828117 0.25027931 0.32184196 4285229931
63.889572 0.21490037 0.31537119 4285361517
64.021408 0.18141359 0.3002688 4285098345
64.110336 0.14537743 0.2902157 4284572001
64.367485 0.11217839 0.25934359 4283650899
65.014404 0.086343877 0.18098687 4283585106
65.48114 1.4303129 0.044830684 4284966759
64.971275 1.3294178 0.11058555 4284506208
64.828079 1.2724116 0.13030608 4284440415
64.812775 1.2299975 0.13384391 4284374622
64.647041 1.1718708 0.15624058 4284440415
64.527946 1.1194631 0.17271331 4284440415
64.456818 1.0725249 0.18313058 4284308829
64.435402 1.0307521 0.18724857 4284308829
64.242996 0.97302735 0.2126566 4284374622
64.200134 0.9299559 0.21930213 4284308829
64.117615 0.88346368 0.23072746 4284374622
64.035446 0.83755547 0.24213597 4284572001
64.10067 0.80421054 0.2351391 4284769380
64.280182 0.77920038 0.21367733 4285098345
64.516602 0.75732064 0.18504982 4285558896
64.213509 0.69527227 0.22406018 4285558896
63.965405 0.63857961 0.25599822 4285164138
63.917454 0.59654349 0.26283807 4284703587
64.012009 0.56432104 0.25214168 4284637794
63.852859 0.51640761 0.27322096 4284703587
63.695473 0.46941718 0.29397151 4284769380
63.607567 0.42715597 0.30601472 4284835173
63.568363 0.38797164 0.31196788 4284769380
63.346302 0.34028423 0.34075728 4284769380
63.403633 0.30634907 0.33453164 4284835173
63.590473 0.27768251 0.31217813 4284966759
63.545784 0.23893256 0.31873947 4285164138
63.739422 0.20912598 0.29554614 4285229931
63.89304 0.17671846 0.27728212 4284966759
63.906078 0.13849004 0.27632722 4284243036
64.191292 0.10686759 0.24124232 4283321934
65.180023 0.088889919 0.11811259 4284111450
65.675781 1.4956449 -0.025048923 4284900966
65.096527 1.3846692 0.051322117 4284506208
64.879318 1.3184805 0.081060946 4284308829
64.788307 1.2675909 0.094502546 4284374622
64.6819 1.2154629 0.10977858 4284374622
64.557404 1.1620667 0.12734054 4284308829
64.467667 1.1129302 0.14036873 4284243036
64.362183 1.0627614 0.15537734 4284177243
64.23996 1.0115377 0.17244013 4284308829
64.142838 0.96327424 0.18616393 4284308829
64.146736 0.9247151 0.18690968 4284308829
64.047737 0.87695789 0.20068507 4284506208
63.917072 0.82713223 0.21850662 4284637794
63.919586 0.78903019 0.21931994 4284703587
63.982571 0.75552899 0.21229094 4284900966
63.909924 0.71134937 0.22256827 4285098345
63.753765 0.66165119 0.2435765 4285229931
63.614697 0.61403453 0.26235265 4284966759
63.699627 0.58187777 0.25231257 4284637794
63.70483 0.54457909 0.25270092 4284440415
63.585659 0.49999335 0.26910785 4284506208
63.496922 0.45773363 0.28151786 4284703587
63.352245 0.4130919 0.30110943 4284703587
63.221378 0.37004459 0.31890371 4284572001
63.159046 0.33102456 0.32786879 4284637794
63.285633 0.30066785 0.31254929 4284900966
63.343216 0.26692876 0.3061491 4285098345
63.469173 0.23560148 0.29101184 4285164138
63.534985 0.20139961 0.28355148 4285032552
63.62809 0.16744772 0.27248862 4284637794
63.65239 0.13008979 0.26996657 4283914071
63.9986 0.101243 0.22633484 4283124555
65.743912 0.10047898 0.003281153 4284900966
65.486763 1.4724342 -0.043633435 4284506208
65.060371 1.3799998 0.014368503 4284374622
64.814194 1.310634 0.048550054 4284374622
64.652237 1.2520643 0.071569853 4284308829
64.518112 1.1973523 0.090779193 4284243036
64.426994 1.1479518 0.10428811 4284177243
64.294334 1.0948272 0.12319744 4284111450
64.278168 1.0540586 0.1267758 4284177243
64.060577 0.9938634 0.15666109 4284243036
64.040848 0.95335108 0.16048884 4284177243
64.042145 0.91482848 0.16151583 4284177243
63.919254 0.86533332 0.17872678 4284308829
63.700508 0.80840236 0.20842455 4284506208
63.750675 0.77484506 0.2029743 4284572001
63.597816 0.72503847 0.2240887 4284572001
63.405354 0.67309302 0.25032327 4284637794
63.390171 0.63494688 0.25320306 4284900966
63.34927 0.5953356 0.25957397 4284835173
63.492512 0.56793398 0.24167366 4284572001
63.505833 0.53172082 0.240932 4284308829
63.419476 0.48968828 0.25335991 4284440415
63.407299 0.45230329 0.25598505 4284637794
63.247368 0.40715849 0.27800933 4284637794
63.125633 0.36490616 0.29498228 4284440415
63.157814 0.33065259 0.29171348 4284637794
63.173965 0.29526761 0.29043412 4284966759
63.195614 0.26039067 0.28855971 4285229931
63.320198 0.22945169 0.2732048 4285164138
63.383312 0.19553252 0.26585791 4284900966
63.434181 0.16045925 0.25996786 4284374622
63.562435 0.12679128 0.24377245 4283650899
64.120819 0.10405102 0.17139731 4282992969
65.461403 1.4689325 -0.083102152 4284374622
65.049507 1.3783081 -0.025784008 4284374622
64.786949 1.3071311 0.011324305 4284440415
64.630959 1.2493293 0.034011573 4284243036
64.42865 1.1872972 0.062752791 4284111450
64.209457 1.1246537 0.093681917 4283979864
64.130119 1.0776764 0.10582875 4283979864
64.07428 1.0334499 0.11474344 4284045657
63.876183 0.97572178 0.14261751 4284177243
63.941845 0.9437288 0.13501906 4284243036
63.842873 0.89635491 0.14940777 4284308829
63.758213 0.85087067 0.16188882 4284308829
63.542995 0.79469025 0.19172712 4284440415
63.521595 0.75579613 0.19570911 4284440415
63.432625 0.71174449 0.20873341 4284440415
63.284363 0.66364485 0.22961153 4284506208
63.243645 0.6239447 0.23590183 4284769380
63.179131 0.58314693 0.24554569 4284835173
63.314915 0.55589527 0.22827286 4284637794
63.329159 0.52028966 0.22735423 4284506208
63.262264 0.47994635 0.23740143 4284572001
63.239166 0.44243848 0.24151739 4284637794
63.138847 0.4010312 0.25601387 4284637794
63.07206 0.36190626 0.26596791 4284506208
63.017658 0.32363766 0.27417266 4284703587
63.135101 0.29318044 0.25924486 4285032552
63.124664 0.25710872 0.26159793 4285295724
63.199802 0.22440897 0.25245476 4285098345
63.204124 0.18862441 0.25273186 4284769380
63.179375 0.15139718 0.25673196 4284111450
63.457836 0.12313193 0.22009462 4283321934
64.235039 0.10644213 0.11674335 4282927176
65.453957 1.4676005 -0.12489274 4284308829
65.06208 1.3793757 -0.069107682 4284308829
64.719002 1.2989911 -0.0201602 4284243036
64.477913 1.2319345 0.014657515 4284177243
64.245682 1.16713 0.048084706 4283979864
64.029739 1.1053828 0.079196215 4283848278
63.970074 1.0609937 0.088878281 4283848278
63.891949 1.0150356 0.10098875 4283914071
63.742538 0.96252656 0.12273447 4284045657
63.792561 0.92942363 0.11702631 4284308829
63.664608 0.87982684 0.13562658 4284506208
63.517483 0.82941937 0.1569024 4284703587
63.45105 0.78652585 0.16697979 4284506208
63.304878 0.73774928 0.18810192 4284308829
63.20512 0.69352686 0.20286347 4284308829
63.15321 0.65339655 0.21098018 4284374622
63.072517 0.61117524 0.22284053 4284637794
63.084385 0.57618308 0.22219543 4284835173
63.158455 0.54523134 0.21301025 4284769380
63.100224 0.50558537 0.22199135 4284703587
63.039394 0.46625862 0.2313654 4284769380
63.077545 0.4329384 0.22714786 4284769380
63.027576 0.39474291 0.23502736 4284703587
62.944672 0.3551361 0.24736986 4284637794
62.943455 0.31976548 0.24842127 4284769380
63.015018 0.28747499 0.2394124 4285164138
63.050667 0.25372723 0.23548028 4285295724
63.095005 0.21997014 0.23028345 4285098345
63.057072 0.18283428 0.23626626 4284572001
63.119144 0.1488587 0.22844122 4283914071
63.469635 0.12301944 0.1811419 4283058762
64.46096 0.1113352 0.046010233 4283058762
65.439041 1.465389 -0.16559911 4284243036
64.989853 1.3705152 -0.1006112 4284177243
64.64106 1.2897208 -0.049851555 4284111450
64.373466 1.2199612 -0.010619054 4284045657
64.120895 1.153283 0.02633984 4283914071
63.833626 1.0844374 0.068099909 4283716692
63.759968 1.0392287 0.079908736 4283716692
63.790043 1.0046378 0.077047281 4283848278
63.66655 0.95491731 0.095572278 4283979864
63.612923 0.91231382 0.10418052 4284243036
63.551334 0.86922169 0.11382425 4284440415
63.519974 0.82928133 0.11931397 4284572001
63.365246 0.7788713 0.14190328 4284440415
63.162804 0.72577375 0.17132325 4284308829
63.166676 0.69013 0.17187442 4284308829
63.078701 0.6474058 0.1851839 4284374622
62.950138 0.60198849 0.20399779 4284637794
62.978588 0.56849432 0.20096964 4284769380
63.015736 0.53547543 0.19674598 4284835173
62.881111 0.49151057 0.21661326 4284900966
62.821415 0.45284697 0.22595637 4284835173
62.928356 0.42410216 0.2119725 4284769380
62.852966 0.38501984 0.22355485 4284703587
62.758797 0.34534904 0.23769446 4284703587
62.802788 0.31268618 0.23239814 4284900966
62.815487 0.27824518 0.2314214 4285295724
62.903515 0.24730507 0.22003926 4285361517
62.93961 0.21352816 0.21579693 4284966759
62.979862 0.17956233 0.21091656 4284440415
63.098434 0.14766254 0.194997 4283782485
63.434772 0.1215163 0.14863703 4282861383
64.77504 0.11787678 -0.038560908 4283848278
65.991196 3.6502378 -0.31843328 4286151033
66.013657 3.6114056 -0.32042068 4286151033
66.000008 1.5761762 -0.29088783 4284111450
65.42717 1.4635564 -0.20666675 4284177243
64.951744 1.3656663 -0.13659206 4284111450
64.551468 1.2791251 -0.077428117 4284045657
64.131027 1.1926235 -0.015526005 4283979864
63.900585 1.129095 0.019004432 4283848278
63.732037 1.0734599 0.044622235 4283782485
63.669868 1.0297217 0.054970615 4283782485
63.659496 0.99141234 0.05780622 4283782485
63.531067 0.94160175 0.077378333 4284111450
63.445881 0.89646322 0.090644807 4284374622
63.445824 0.85933632 0.091585599 4284374622
63.45488 0.82323545 0.091363505 4284308829
63.135311 0.75900853 0.13791141 4284243036
63.080791 0.7187252 0.14681593 4284308829
63.070412 0.68215936 0.14934622 4284374622
62.944462 0.63685489 0.16832858 4284506208
62.809189 0.59146816 0.18853515 4284703587
62.867828 0.56052214 0.18110587 4284835173
62.813572 0.52179927 0.18982948 4284966759
62.789421 0.48543569 0.19429117 4284966759
62.748863 0.44816115 0.20104137 4284835173
62.874344 0.42067316 0.18406305 4284637794
62.827442 0.38330778 0.19178849 4284572001
62.757301 0.34491974 0.20275277 4284637794
62.666016 0.3057369 0.21663077 4284900966
62.687111 0.27220088 0.21444477 4285295724
62.859524 0.24515381 0.19071609 4285229931
62.87381 0.21056589 0.1894373 4284835173
62.850163 0.17439407 0.19351707 4284243036
62.940701 0.14193085 0.18122885 4283519313
63.38353 0.1195543 0.11868376 4282729797
65.485954 0.13473587 -0.18171048 4284703587
65.982742 1.573638 -0.33279219 4284045657
65.404991 1.4604901 -0.24617037 4284111450
64.912827 1.3607246 -0.17224707 4284111450
64.461212 1.2684538 -0.10439235 4284111450
64.112396 1.190203 -0.051737312 4283979864
63.817753 1.1198 -0.0071391375 4283914071
63.624096 1.0618112 0.022658281 4283914071
63.538593 1.0159845 0.036557715 4283914071
63.623756 0.98756891 0.025445221 4283848278
63.276745 0.91685706 0.077352621 4283979864
63.207672 0.87411618 0.088583037 4284177243
63.356915 0.85096323 0.067545213 4284308829
63.157928 0.79707527 0.097735316 4284308829
62.961308 0.74393159 0.12715641 4284177243
62.991646 0.71108723 0.12382352 4284243036
62.986954 0.67515993 0.12549566 4284374622
62.861855 0.63020515 0.14473651 4284506208
62.73019 0.58541107 0.1648525 4284637794
62.762226 0.55290926 0.16114131 4284769380
62.689243 0.51326507 0.17274357 4284966759
62.624207 0.4747377 0.18324818 4285032552
62.661812 0.4426237 0.17867731 4284769380
62.685051 0.40955684 0.17622545 4284572001
62.74263 0.37839681 0.16882075 4284506208
62.633659 0.33820263 0.18561263 4284637794
62.514915 0.29808813 0.20376097 4284966759
62.627987 0.26924533 0.18811882 4285229931
62.697178 0.2380264 0.17890683 4285098345
62.762772 0.2058244 0.17005761 4284637794
62.727615 0.16949479 0.17585325 4284045657
62.86623 0.13899128 0.15628116 4283321934
63.383881 0.11911941 0.081511788 4282532418
65.432144 1.4633442 -0.29294237 4284111450
64.893921 1.3581251 -0.21068187 4284177243
64.417313 1.2630717 -0.13776624 4284111450
64.050529 1.1829731 -0.081401132 4283914071
63.734234 1.1104414 -0.032696668 4283782485
63.466579 1.0449445 0.0087160822 4283979864
63.180664 0.97904611 0.052711342 4284243036
62.972374 0.92259711 0.085105769 4284374622
63.08886 0.89843225 0.068867587 4284045657
63.041119 0.85833138 0.077158295 4284111450
63.184902 0.8350867 0.056411043 4284769380
62.987499 0.78190881 0.086974323 4284703587
62.690891 0.72080803 0.1318482 4284177243
62.747231 0.69086373 0.1245131 4284111450
62.917774 0.66930389 0.10002252 4284308829
62.777145 0.62341917 0.12195355 4284440415
62.561863 0.57286417 0.15492155 4284506208
62.591854 0.5407896 0.15143389 4284572001
62.496471 0.50018859 0.16658077 4284703587
62.453995 0.46368334 0.173908 4284769380
62.399487 0.42660207 0.18295191 4284703587
62.500183 0.39873394 0.16887034 4284506208
62.557358 0.3680768 0.16132002 4284440415
62.574459 0.33481386 0.15962762 4284703587
62.478901 0.29600227 0.17467222 4285032552
62.493946 0.26293612 0.1732976 4285164138
62.510582 0.22981361 0.17164904 4284966759
62.51688 0.19576304 0.17138344 4284374622
62.611965 0.16486183 0.15789881 4283782485
62.783577 0.13581215 0.13300213 4283058762
63.463432 0.1209406 0.032529391 4282598211
65.473114 1.4678385 -0.34201798 4284111450
64.862427 1.3540293 -0.24712166 4284177243
64.384491 1.2589377 -0.17259899 4284045657
64.010162 1.178121 -0.11399996 4283848278
63.624821 1.09825 -0.053854305 4283848278
63.336426 1.0308982 -0.0085114157 4284045657
62.972992 0.95744717 0.048099894 4284506208
62.910942 0.91618514 0.058871225 4284572001
62.988415 0.88835824 0.04814288 4284111450
62.736214 0.82939243 0.087596871 4283914071
62.448845 0.76825964 0.132057 4284243036
62.409954 0.73103517 0.13901897 4284440415
62.376278 0.69415694 0.14497814 4284177243
62.573132 0.67648673 0.11603655 4284177243
62.65818 0.64855593 0.10390369 4284374622
62.622379 0.61141509 0.11034524 4284506208
62.304207 0.5538438 0.15955278 4284440415
62.132706 0.50868571 0.18661986 4284374622
62.108315 0.4741703 0.191245 4284440415
62.089085 0.44027275 0.19513136 4284572001
62.296883 0.42014757 0.16450588 4284637794
62.389069 0.392111 0.15140353 4284572001
62.42046 0.36032832 0.14755622 4284637794
62.476604 0.32947984 0.13987197 4284835173
62.358624 0.28993195 0.15861045 4285032552
62.365894 0.25689808 0.15836321 4285098345
62.401226 0.22482328 0.15377255 4284835173
62.382153 0.19006169 0.15731412 4284243036
62.423698 0.1575855 0.15164588 4283585106
62.602322 0.12942839 0.12518783 4282927176
63.690697 0.12674069 -0.039447088 4282861383
65.457779 1.4655408 -0.38262799 4284243036
64.770134 1.3427782 -0.27397278 4284308829
64.214363 1.2390682 -0.18597059 4284243036
63.766857 1.1506284 -0.11491594 4284045657
63.430321 1.0767933 -0.061206959 4284045657
63.077854 1.0032405 -0.0051133186 4284374622
62.894268 0.94905406 0.02471846 4284572001
62.776821 0.90248877 0.044221625 4284308829
62.771168 0.86693949 0.046059471 4283979864
62.61599 0.81775653 0.071253039 4283848278
62.197079 0.74519932 0.13701627 4283914071
62.024113 0.69701433 0.16485469 4284045657
62.144379 0.67445928 0.14713889 4284177243
62.149841 0.64193094 0.14725488 4284637794
62.147343 0.60824305 0.14832146 4285164138
62.118317 0.57324344 0.15384568 4285098345
62.116611 0.53990674 0.15487203 4284506208
61.951435 0.49581146 0.18148345 4284440415
61.966991 0.46450037 0.17998248 4284572001
61.951847 0.43128473 0.18327683 4284769380
62.049152 0.40498525 0.16915448 4284835173
61.946831 0.36666286 0.18591624 4284900966
61.895 0.33150676 0.1947594 4285164138
61.933842 0.30144313 0.18959746 4285229931
62.087849 0.27671871 0.16659543 4285295724
62.177826 0.2481254 0.15346983 4285098345
62.150318 0.21381447 0.15843484 4284703587
62.250942 0.18450101 0.14350483 4284045657
62.240528 0.1505239 0.14573751 4283321934
62.477177 0.12495661 0.10979065 4282729797
64.046158 0.1361815 -0.13265908 4283256141
65.517914 1.4723142 -0.43511274 4284308829
64.817871 1.347949 -0.32244822 4284440415
64.209404 1.238098 -0.22445628 4284440415
63.617573 1.1335955 -0.12927108 4284374622
63.209953 1.0525172 -0.063333258 4284308829
62.9636 0.99081039 -0.022986522 4284440415
62.822006 0.94131052 0.00076355931 4284506208
62.686935 0.89319915 0.023375912 4284243036
62.66534 0.8563748 0.02773167 4284045657
62.506763 0.80719131 0.053907733 4284045657
62.051819 0.73170161 0.12660177 4284111450
61.964611 0.69144064 0.1413895 4284111450
62.025135 0.6640659 0.13276345 4284111450
61.913589 0.62237918 0.15133137 4284506208
62.068344 0.60174602 0.12757052 4284966759
61.913048 0.55749243 0.15311672 4284769380
61.87318 0.52207094 0.16018917 4284440415
61.752552 0.48181158 0.18024822 4284374622
61.81863 0.45439065 0.17068142 4284703587
61.881813 0.42657873 0.1616395 4284769380
61.8507 0.39283019 0.16751386 4284835173
61.761059 0.35581347 0.18255593 4284966759
61.666592 0.31877962 0.19821957 4285295724
61.734619 0.29097059 0.18834597 4285558896
61.98819 0.27163017 0.14915515 4285361517
62.034431 0.24129345 0.14262438 4285032552
62.004753 0.20726371 0.1479847 4284506208
62.041302 0.1758621 0.14284663 4283848278
62.038307 0.1428625 0.14395195 4283124555
62.316498 0.11939041 0.10076332 4282466625
64.837074 0.15764455 -0.2968981 4283716692
65.596954 1.4813093 -0.49106094 4284243036
64.872246 1.3538297 -0.37234533 4284243036
64.092377 1.2242662 -0.2449041 4284374622
63.560127 1.126801 -0.15753916 4284572001
63.10339 1.04058 -0.082487851 4284440415
62.80035 0.97320229 -0.032306187 4284177243
62.57634 0.91577405 0.0051319348 4284177243
62.570179 0.88121283 0.0073667625 4284111450
62.642479 0.85385042 -0.0033073602 4284045657
62.447838 0.80133182 0.029111112 4284045657
61.880096 0.7157706 0.12128251 4284111450
61.874447 0.68310696 0.12316229 4284111450
61.785149 0.6433109 0.13843007 4283914071
61.463268 0.58522713 0.19116957 4283914071
61.087803 0.52481294 0.25247431 4283979864
61.04108 0.49161458 0.26094231 4283979864
61.194923 0.47306871 0.23705293 4283979864
61.403194 0.4574438 0.20443064 4284111450
61.415234 0.42748302 0.20333578 4284308829
61.385906 0.39510608 0.20899431 4284374622
61.392666 0.36514762 0.20885006 4284374622
61.349762 0.33212432 0.21659584 4284572001
61.469864 0.30780968 0.19796146 4284966759
61.593327 0.28344736 0.1789619 4285295724
61.715267 0.25819612 0.16016206 4285098345
61.815933 0.23109452 0.14471453 4284769380
61.863739 0.20094541 0.13768506 4284308829
61.847515 0.16786329 0.1408983 4283716692
61.905781 0.13778181 0.13219167 4282861383
62.3274 0.11938757 0.065096796 4282335039
65.52198 4.000627 -0.56310713 4286545791
65.527191 3.9590471 -0.56255132 4286743170
65.734612 1.4973505 -0.55711979 4284045657
64.962982 1.3639829 -0.42854199 4283979864
64.037712 1.2175884 -0.27488345 4284177243
63.424564 1.1113108 -0.17265339 4284374622
62.906239 1.0188293 -0.086150266 4284243036
62.631062 0.95501202 -0.039636295 4284111450
62.451687 0.90268803 -0.0088561941 4284045657
62.455051 0.86942613 -0.0081985341 4283979864
62.539181 0.84358841 -0.021019518 4283979864
62.385979 0.79523057 0.0051572351 4284045657
61.657558 0.69525516 0.12532027 4283979864
61.587944 0.65740693 0.13754348 4283914071
61.54007 0.62213504 0.14636753 4283782485
61.26289 0.56850988 0.19277255 4283716692
60.927956 0.51198548 0.24859942 4283782485
60.863514 0.47797769 0.26011783 4283782485
60.952728 0.45539379 0.24639313 4283782485
61.060421 0.43349147 0.22959715 4283979864
61.079582 0.40504825 0.22728567 4284111450
61.066319 0.37469953 0.23038025 4284177243
61.048618 0.34423667 0.23420529 4284177243
61.068241 0.31573892 0.2317823 4284374622
61.116413 0.28844839 0.22458532 4284703587
61.19651 0.26296216 0.2123096 4284900966
61.401569 0.24281543 0.17948124 4284703587
61.486721 0.21594393 0.1662526 4284374622
61.643803 0.1913424 0.14116031 4283914071
61.787319 0.16512068 0.11824648 4283519313
61.867943 0.13609858 0.10571709 4282729797
62.211872 0.1151727 0.050048705 4282400832
65.876106 1.5138624 -0.62464952 4283914071
65.039253 1.3724642 -0.48285767 4283979864
63.896046 1.2010013 -0.28998101 4284177243
63.37788 1.1057789 -0.20178179 4284045657
62.838383 1.0111531 -0.11020784 4284045657
62.486561 0.93948227 -0.050075423 4283979864
62.292587 0.88613003 -0.016322877 4283979864
62.133835 0.83728051 0.011409189 4284243036
61.845123 0.77655625 0.060633339 4284966759
61.678471 0.72938448 0.089692347 4284900966
61.407272 0.67224461 0.13532092 4284111450
61.418941 0.64205927 0.13406676 4283782485
61.448433 0.61397475 0.1301862 4283782485
61.177841 0.56123251 0.17634436 4283782485
60.85799 0.50619942 0.23066841 4283782485
60.794334 0.47249597 0.24225157 4283782485
60.838554 0.44690561 0.23577376 4283848278
60.949757 0.4255515 0.21803921 4284045657
60.946323 0.39594269 0.21942775 4284243036
60.933861 0.36604899 0.222415 4284308829
60.977905 0.33967015 0.21596353 4284440415
61.006187 0.31184328 0.21201293 4284506208
61.049236 0.28455675 0.20555191 4284703587
61.081501 0.25682917 0.2010029 4284703587
61.221222 0.23382142 0.17842475 4284506208
61.372734 0.21047589 0.15386017 4284111450
61.5742 0.18807368 0.12088458 4283782485
61.698547 0.16127838 0.10072061 4283256141
61.838669 0.13472621 0.078038402 4282532418
62.130959 0.11142461 0.029760288 4282598211
65.935921 1.5205601 -0.67912799 4283782485
65.077316 1.376474 -0.53113103 4284045657
63.824696 1.1924784 -0.31619141 4284177243
63.305389 1.0973732 -0.22625375 4284045657
62.665291 0.99206382 -0.1159804 4283848278
62.273041 0.91664994 -0.047944605 4283782485
62.049454 0.86089146 -0.0086096209 4283848278
62.099186 0.83350152 -0.015861807 4284572001
61.851456 0.77680248 0.027227763 4285295724
61.746986 0.73548466 0.046238512 4285098345
61.284824 0.66090047 0.12514454 4284308829
61.269348 0.62873358 0.12847073 4283979864
61.305237 0.60157615 0.12336545 4283979864
61.05994 0.55135846 0.1660383 4283914071
60.806267 0.50186563 0.21006109 4283848278
60.693558 0.4646619 0.23017298 4283848278
60.72089 0.43816411 0.2264232 4283914071
60.745834 0.41116267 0.22298518 4284111450
60.764191 0.383643 0.22068208 4284308829
60.855824 0.36084092 0.2059934 4284374622
60.86935 0.33281085 0.20456164 4284506208
60.907776 0.30584806 0.19877796 4284703587
60.929096 0.27783224 0.1959213 4284769380
61.017803 0.25326627 0.18164949 4284637794
61.176975 0.23133083 0.15532409 4284374622
61.321495 0.20781748 0.13148957 4283979864
61.531445 0.18590488 0.096457995 4283650899
61.674519 0.15992701 0.072726972 4283058762
61.793686 0.13277921 0.053196374 4282400832
62.207417 0.11289959 -0.016735019 4282795590
65.976967 1.5249851 -0.73073643 4283848278
65.029282 1.3703667 -0.56475085 4283979864
63.364944 1.1396013 -0.27471602 4283848278
62.899906 1.0519063 -0.19265841 4283782485
62.398342 0.96280974 -0.10448255 4283519313
62.043251 0.89207798 -0.04174947 4283519313
61.766754 0.83150578 0.0073354812 4283650899
61.304836 0.75386095 0.088284343 4283914071
60.87096 0.68174529 0.16438296 4283914071
60.657852 0.63296318 0.20232037 4283782485
60.943443 0.63003463 0.1537011 4283979864
60.903172 0.59680611 0.16138624 4284308829
60.813568 0.56004524 0.17779201 4284440415
60.764507 0.52714312 0.18717843 4284111450
60.625698 0.48745403 0.21204144 4283914071
60.579739 0.45582736 0.22093727 4283914071
60.540848 0.42489728 0.22854669 4283979864
60.647705 0.4041293 0.21086735 4284177243
60.67635 0.37761506 0.20673004 4284243036
60.790043 0.35642192 0.18792103 4284374622
60.86253 0.33208093 0.17622426 4284572001
60.860168 0.30277604 0.17735456 4284835173
60.910225 0.27652141 0.16948055 4284769380
61.040112 0.25405097 0.14779657 4284572001
61.182964 0.23122229 0.12379538 4284243036
61.362026 0.20926337 0.093558878 4283979864
61.522816 0.18511711 0.06637422 4283519313
61.641621 0.15819344 0.04639684 4282992969
61.68145 0.12841108 0.040235329 4282400832
62.311424 0.11539494 -0.068416938 4283058762
65.856277 1.5098259 -0.75420558 4284374622
64.811729 1.3444191 -0.5682103 4284243036
63.187698 1.1190886 -0.28021252 4283782485
62.59959 1.018244 -0.17510764 4283585106
62.271961 0.94889081 -0.11608346 4283453520
61.900196 0.87675637 -0.049390126 4283453520
61.513691 0.80523455 0.019795613 4283387727
61.002872 0.7235865 0.11077432 4283387727
60.716278 0.66673523 0.16232169 4283387727
60.592106 0.62665534 0.18518901 4283453520
60.693707 0.60740525 0.16813697 4283650899
60.831112 0.59032136 0.14459866 4284045657
60.805447 0.55910313 0.149977 4284243036
60.658585 0.51830578 0.17672125 4284111450
60.50708 0.4779543 0.20422579 4283979864
60.467987 0.44717917 0.21202573 4283914071
60.470741 0.41959399 0.21241251 4283979864
60.488525 0.39296335 0.21010721 4284111450
60.585091 0.37137169 0.19390248 4284177243
60.751102 0.35365868 0.16550095 4284243036
60.799149 0.32791966 0.15785807 4284506208
60.763504 0.29695109 0.16485599 4284769380
60.893166 0.27528182 0.14282195 4284703587
61.036266 0.25345346 0.11839027 4284440415
61.230137 0.23308112 0.084985107 4284177243
61.389118 0.2100625 0.057734001 4283848278
61.551121 0.18581198 0.029830642 4283387727
61.638725 0.15760866 0.014984543 4282795590
61.662373 0.12732798 0.011559862 4282203453
62.403847 0.11718637 -0.11875576 4283716692
65.890121 1.5135032 -0.80446756 4284308829
64.816078 1.3445981 -0.61005628 4284111450
63.066998 1.1051213 -0.29473811 4283782485
62.53101 1.010414 -0.19725263 4283716692
62.117966 0.93208712 -0.12193062 4283650899
61.774853 0.86333209 -0.059338335 4283453520
61.465885 0.80007267 -0.002926467 4283387727
61.001865 0.72325283 0.081206165 4283256141
60.714188 0.66631943 0.13379982 4283190348
60.543854 0.6219309 0.16528369 4283256141
60.558559 0.59501374 0.1634874 4283453520
60.535961 0.56452185 0.16824169 4283650899
60.42585 0.52706283 0.18878488 4283716692
60.355755 0.4935618 0.20217033 4283848278
60.386269 0.4683665 0.19754177 4283914071
60.349037 0.4380447 0.20508803 4283979864
60.336224 0.40968177 0.20823248 4284045657
60.385139 0.38563111 0.20030031 4284111450
60.445862 0.36195552 0.19019663 4284308829
60.483303 0.33631828 0.18419756 4284506208
60.543022 0.31213543 0.17432737 4284703587
60.657177 0.29061919 0.15467529 4284769380
60.886055 0.27455118 0.11447257 4284637794
61.021141 0.25221679 0.091000751 4284243036
61.218288 0.23200156 0.056411143 4283979864
61.402748 0.21015581 0.024121897 4283585106
61.59383 0.18703678 -0.009478421 4283124555
61.631943 0.15682721 -0.015728319 4282532418
61.712437 0.12866202 -0.029375035 4282137660
62.781822 0.12763447 -0.22082967 4285098345
64.087234 1.2980652 -0.51920754 4284177243
63.208836 1.1571873 -0.35751197 4283914071
62.797409 1.0744478 -0.28124544 4283782485
62.471027 1.0035964 -0.22053252 4283782485
62.017685 0.9211027 -0.1366501 4283716692
61.599579 0.84469897 -0.059430212 4283387727
61.358665 0.78889853 -0.014517793 4283321934
60.973042 0.72023547 0.056742184 4283256141
60.70681 0.66541237 0.10625249 4283190348
60.552917 0.62258226 0.13524105 4283190348
60.504948 0.58999884 0.14480683 4283387727
60.500576 0.56128973 0.14631613 4283453520
60.402103 0.52491724 0.1650579 4283650899
60.244045 0.48432773 0.19463998 4283716692
60.226765 0.45576254 0.19861683 4283848278
60.235882 0.42934373 0.19779947 4283914071
60.263924 0.40423253 0.19352154 4284045657
60.29863 0.37939951 0.18800922 4284111450
60.331593 0.35412353 0.18275267 4284506208
60.349575 0.32751945 0.18014026 4285098345
60.444645 0.30593702 0.16367744 4285295724
60.650978 0.28996989 0.12690991 4285032552
60.831875 0.27122384 0.094703756 4284506208
61.030067 0.25218448 0.059320942 4284177243
61.240303 0.2325063 0.021739643 4283782485
61.430832 0.21077099 -0.012235394 4283453520
61.668961 0.18947788 -0.0549744 4282927176
61.705475 0.1591831 -0.060993936 4282400832
61.844341 0.13277858 -0.085518785 4282269246
64.300125 0.17350936 -0.53279036 4285887861
65.724564 1.5368844 -0.86336988 4284308829
63.95953 1.2825943 -0.53434283 4283848278
63.062054 1.1399003 -0.36649564 4283650899
62.622417 1.0544529 -0.28375414 4283650899
62.287304 0.98310494 -0.22050579 4283585106
61.891365 0.90731359 -0.14595538 4283519313
61.525806 0.83680266 -0.07723897 4283387727
61.201778 0.77281457 -0.016192244 4283321934
60.860336 0.70903391 0.048039984 4283321934
60.552624 0.65049785 0.1059707 4283256141
60.411942 0.60936171 0.13295764 4283321934
60.405628 0.5809533 0.1349407 4283453520
60.506733 0.56161815 0.11687908 4283453520
60.429558 0.52703911 0.13197382 4283585106
60.229862 0.4829396 0.16969809 4283650899
60.122814 0.44744092 0.19033732 4283716692
60.135071 0.42155653 0.18889354 4283848278
60.20237 0.3995347 0.17724085 4283979864
60.233002 0.37454343 0.1723429 4284177243
60.284756 0.35067108 0.16349082 4284506208
60.326328 0.32577682 0.15648618 4284835173
60.403564 0.30321723 0.14303458 4284966759
60.589165 0.28615686 0.10946017 4284835173
60.815487 0.26992708 0.068268813 4284506208
61.04393 0.25236946 0.026663352 4284177243
61.293926 0.23450723 -0.018912125 4283848278
61.53582 0.21482956 -0.062973373 4283321934
61.814308 0.1947584 -0.11391856 4282664004
61.837646 0.16379535 -0.11754004 4282203453
62.198597 0.14398435 -0.18372723 4282664004
65.37455 1.4938152 -0.84104568 4283716692
63.939632 1.2800431 -0.56904048 4283519313
63.022564 1.1351289 -0.39484379 4283453520
62.492687 1.0396029 -0.29376495 4283387727
62.086391 0.96076471 -0.21612379 4283387727
61.764645 0.8935011 -0.15443131 4283387727
61.420624 0.82566363 -0.08867608 4283387727
61.154388 0.76788974 -0.037552737 4283387727
60.845684 0.70750827 0.02153082 4283387727
60.531761 0.64836788 0.081507474 4283256141
60.347687 0.6033203 0.1170954 4283387727
60.251312 0.56708366 0.13606597 4283585106
60.204712 0.53492218 0.14526068 4283782485
60.244202 0.51131183 0.13875231 4283782485
60.051086 0.468077 0.17572211 4283650899
60.004559 0.43791211 0.18532385 4283716692
60.034332 0.4137238 0.1805497 4283848278
60.151543 0.3955912 0.1592993 4283979864
60.179344 0.37048709 0.15480475 4284111450
60.251617 0.34810299 0.14192463 4284374622
60.294624 0.32352284 0.13456376 4284703587
60.370636 0.30097723 0.12109773 4284769380
60.567204 0.28456569 0.084873766 4284572001
60.832104 0.2703805 0.03572147 4284374622
61.113411 0.25542927 -0.016510606 4284177243
61.408928 0.23951077 -0.071393512 4283716692
61.693439 0.22125943 -0.12422016 4283124555
62.014416 0.20243469 -0.18398798 4282532418
62.014774 0.17012452 -0.18332568 4282071867
63.244644 0.17833705 -0.41428158 4282992969
65.188133 1.4708254 -0.84797192 4283650899
63.864586 1.2709906 -0.59301054 4283453520
62.861134 1.1162814 -0.39952615 4283453520
62.340553 1.0222622 -0.29869089 4283387727
61.917866 0.94199586 -0.216763 4283387727
61.656551 0.88174945 -0.16569464 4283321934
61.279293 0.81077015 -0.092560932 4283256141
61.063011 0.75850427 -0.050218068 4283256141
60.78764 0.70167255 0.0033862239 4283321934
60.452084 0.64058656 0.068399057 4283256141
60.214493 0.59084034 0.11476839 4283387727
60.126865 0.55582714 0.13235873 4283716692
60.091953 0.52482092 0.13934083 4284703587
59.988754 0.48969141 0.16002026 4284572001
59.908367 0.45623896 0.17596965 4283782485
59.932114 0.43200639 0.17228316 4283650899
59.933319 0.40589562 0.17286614 4283782485
60.06813 0.38928223 0.14787234 4283979864
60.136234 0.36717713 0.1355781 4284177243
60.228584 0.34623247 0.11863546 4284506208
60.294216 0.32325038 0.10685692 4284835173
60.377213 0.30107358 0.091803603 4284900966
60.59882 0.28598544 0.050178953 4284637794
60.901363 0.27364904 -0.0069813416 4284308829
61.218243 0.26028669 -0.066848636 4284111450
61.554115 0.24590154 -0.13034028 4283716692
61.880409 0.22899824 -0.19201271 4282927176
62.242214 0.21126069 -0.26053941 4282335039
62.258335 0.17892013 -0.26287034 4282006074
64.842697 1.4285216 -0.82275188 4283650899
63.787418 1.2616749 -0.61614197 4283387727
62.769623 1.1055455 -0.41688481 4283321934
62.160404 1.0017793 -0.29725215 4283321934
61.661915 0.91356206 -0.19940704 4283453520
61.448864 0.85930896 -0.15694579 4283453520
61.076839 0.78953058 -0.083705597 4283453520
60.691856 0.72070473 -0.0079589132 4283716692
60.399052 0.66310364 0.049747534 4283848278
60.224979 0.61851454 0.084307492 4283519313
60.042709 0.57457322 0.12062296 4283519313
59.862392 0.53171128 0.15644142 4283650899
59.912727 0.50915349 0.14708848 4284308829
59.868511 0.47933549 0.15653308 4284243036
59.800335 0.44741619 0.17042325 4283716692
59.802235 0.42174536 0.17086495 4283716692
59.880043 0.40171561 0.15654927 4283848278
59.965897 0.381634 0.14059775 4284045657
60.073677 0.36253154 0.12037956 4284374622
60.177086 0.34253475 0.10101914 4284703587
60.296566 0.32316667 0.078618743 4284900966
60.391506 0.30162209 0.060966499 4284900966
60.613689 0.28639218 0.018518858 4284637794
60.970802 0.27684638 -0.050159369 4284308829
61.344173 0.26604784 -0.12195487 4284045657
61.773525 0.25557414 -0.20461638 4283585106
62.176739 0.24131882 -0.28220177 4282795590
62.585037 0.22466852 -0.36079901 4282203453
62.526131 0.18859912 -0.34858298 4281940281
64.556068 1.393862 -0.806822 4283650899
63.648819 1.2454913 -0.62639248 4283453520
62.541477 1.0790409 -0.40663117 4283256141
61.853683 0.96698034 -0.26972255 4283190348
61.443394 0.88923705 -0.18794291 4283387727
61.22834 0.83543336 -0.14446436 4283453520
60.658295 0.74562234 -0.031033879 4283782485
60.496593 0.70078301 0.0017941857 4284440415
60.297241 0.65280771 0.041826878 4284308829
60.07362 0.60375613 0.086658679 4283848278
59.934685 0.56425732 0.1149423 4283453520
59.7257 0.51906091 0.15690303 4283190348
59.485836 0.47229335 0.20486586 4283256141
59.423893 0.44195575 0.21777341 4283519313
59.582222 0.42984724 0.18727575 4283716692
59.728119 0.41587436 0.15924837 4283848278
59.783623 0.39434379 0.1490608 4283979864
59.8839 0.37545013 0.12994696 4284177243
60.025085 0.35887438 0.10281163 4284440415
60.188259 0.34302604 0.071386658 4284703587
60.288925 0.32244456 0.05232567 4284835173
60.379364 0.30055079 0.035234142 4284703587
60.639339 0.28743365 -0.015346969 4284440415
61.047127 0.2803725 -0.095121831 4284111450
61.522434 0.27430722 -0.18816133 4283848278
62.116486 0.27083388 -0.30460843 4283190348
62.58979 0.25860021 -0.39720055 4282664004
62.967457 0.23966424 -0.47091708 4282203453
63.049313 0.20764603 -0.48626834 4282137660
64.354652 1.3697487 -0.80622935 4283914071
63.558651 1.2353388 -0.64539748 4283716692
62.299404 1.0509015 -0.39224598 4283453520
61.523624 0.92952669 -0.23570102 4283124555
61.136765 0.85519779 -0.15750769 4283453520
60.830654 0.79253823 -0.0951491 4283782485
60.464291 0.72516006 -0.020887332 4284045657
60.012634 0.6515038 0.070533551 4283914071
59.861233 0.60941577 0.10138766 4283716692
59.896076 0.58658671 0.095197879 4283585106
59.762573 0.54797769 0.12272479 4283321934
59.650806 0.51208383 0.14586423 4283321934
59.476398 0.4712688 0.18145491 4283453520
59.437126 0.44291395 0.19002591 4283650899
59.531227 0.42564625 0.17192827 4283782485
59.674828 0.41160497 0.14389578 4283979864
59.749031 0.39156562 0.12976359 4284111450
59.878307 0.37478909 0.10451633 4284308829
60.040325 0.35966155 0.072783805 4284506208
60.167263 0.34140706 0.048118219 4284703587
60.266689 0.32076982 0.028981034 4284637794
60.36681 0.29945081 0.0096526248 4284440415
60.670338 0.28882164 -0.0504243 4284243036
61.127457 0.28424698 -0.14130352 4283848278
61.729179 0.28405249 -0.26111427 4283716692
62.513783 0.28864175 -0.41751987 4283058762
63.074665 0.27896661 -0.52905256 4282400832
63.362919 0.25515097 -0.58594286 4282137660
65.154037 0.28454769 -0.94376272 4282466625
65.185646 1.5140536 -1.0157017 4283979864
63.663471 1.2849423 -0.70521927 4283782485
62.874939 1.1534834 -0.54357535 4283716692
61.67263 0.97787809 -0.2981849 4283387727
61.191956 0.89185464 -0.19941589 4283585106
60.923817 0.8316679 -0.14422505 4283848278
60.545837 0.76205075 -0.066283077 4283716692
59.990379 0.67587602 0.047574282 4283321934
59.75724 0.62572253 0.095818199 4283453520
59.695927 0.59297442 0.10863708 4283716692
59.658588 0.56385273 0.11705762 4283519313
59.658081 0.53800523 0.11780664 4283321934
59.550915 0.50283396 0.14033394 4283453520
59.448215 0.46854472 0.16187172 4283650899
59.430641 0.44217727 0.16618015 4283716692
59.518948 0.42451921 0.14899328 4283782485
59.640469 0.4087652 0.12499417 4283914071
59.729721 0.38988715 0.10754976 4284111450
59.844955 0.37216023 0.084758565 4284308829
59.935776 0.35230976 0.067012429 4284374622
60.052811 0.33359066 0.043922361 4284374622
60.196178 0.31597117 0.015532074 4284243036
60.355583 0.29838863 -0.016139187 4284111450
60.628971 0.28621727 -0.070972502 4283979864
61.057652 0.28036734 -0.15741745 4283716692
61.960094 0.2950097 -0.34021115 4283519313
63.042248 0.31241629 -0.55948776 4282861383
63.785839 0.30894423 -0.7098242 4282071867
63.878757 0.27537096 -0.72781253 4282006074
64.775055 1.4625704 -0.97293192 4283848278
61.113922 0.97230852 -0.21638972 4283716692
61.001205 0.92915308 -0.19208826 4283387727
61.074062 0.9080891 -0.20624785 4283256141
60.786327 0.84577096 -0.14590204 4283519313
60.099895 0.74107033 -0.0033021551 4283387727
59.838745 0.68640876 0.051568814 4283058762
59.783016 0.65463144 0.063930377 4282992969
59.694424 0.61947167 0.082863614 4283387727
59.611679 0.58452362 0.10014354 4283979864
59.546967 0.55310792 0.11434237 4283914071
59.579937 0.53050113 0.10808754 4283453520
59.534233 0.50113833 0.11827949 4283519313
59.437943 0.46747565 0.13880357 4283650899
59.453587 0.44392291 0.13631019 4283650899
59.515995 0.42410356 0.12418782 4283716692
59.624706 0.40733227 0.10244503 4283848278
59.692799 0.38686472 0.089064941 4284045657
59.759655 0.36587879 0.075927049 4284177243
59.813873 0.34381112 0.065453254 4284177243
59.97657 0.32825857 0.032528475 4284045657
60.121441 0.31094977 0.0033875657 4283914071
60.397224 0.30052361 -0.052738935 4283914071
60.686836 0.28921425 -0.11171475 4283782485
61.118774 0.28333214 -0.20012626 4283716692
62.202404 0.30655113 -0.42303422 4283321934
63.878159 0.35013086 -0.76808292 4282664004
64.797897 0.35171053 -0.95693195 4281874488
64.811691 0.3120642 -0.9588092 4281874488
64.278358 1.4001291 -0.90978783 4284111450
61.021816 0.96106261 -0.22701561 4283256141
60.905331 0.9176051 -0.2016802 4283256141
60.915398 0.88957787 -0.20288239 4283256141
60.526947 0.81627345 -0.12061696 4283058762
60.024189 0.73260128 -0.014478903 4282927176
59.815647 0.68382514 0.030140648 4282861383
59.739056 0.6500569 0.047086217 4282729797
59.664177 0.61635143 0.063366883 4283058762
59.556637 0.57905692 0.086083673 4283519313
59.491245 0.54773319 0.10060068 4283585106
59.526741 0.52546734 0.093682498 4283256141
59.500832 0.49802664 0.099852696 4283321934
59.441856 0.467711 0.11285657 4283453520
59.454388 0.44384161 0.11093972 4283519313
59.523033 0.42447329 0.097297773 4283716692
59.595852 0.40486535 0.082716949 4283848278
59.702732 0.38734478 0.061003458 4284045657
59.752266 0.36515042 0.051303424 4284243036
59.832027 0.34485123 0.035317943 4284177243
60.007389 0.32999471 -0.00077323604 4283914071
60.171471 0.31380188 -0.034366209 4283716692
60.441875 0.30284628 -0.090217061 4283914071
60.675606 0.28826743 -0.13838057 4283782485
61.527916 0.30403358 -0.31616285 4283387727
63.374287 0.36294711 -0.70205557 4283058762
64.785477 0.39107648 -0.99663055 4282335039
65.490936 0.38087678 -1.1433197 4281808695
65.535156 0.3403686 -1.151575 4281742902
63.893879 1.3898975 -0.86856073 4284177243
62.206104 1.139613 -0.5090872 4283453520
61.070362 0.96705782 -0.26698643 4283190348
60.610332 0.88274986 -0.16811787 4283519313
60.301689 0.81877607 -0.10149266 4283453520
60.217762 0.78112882 -0.083208866 4283058762
60.000324 0.72982317 -0.036245111 4282795590
59.818417 0.68398583 0.003330003 4282795590
59.721043 0.64808267 0.024929291 4282795590
59.646923 0.61448371 0.041252103 4283190348
59.522861 0.5757724 0.067870274 4283519313
59.46051 0.5447787 0.081896231 4283256141
59.468239 0.520069 0.080771536 4283058762
59.457127 0.49405617 0.08383511 4283190348
59.426914 0.46636164 0.090901144 4283256141
59.459118 0.44410688 0.084732987 4283387727
59.515659 0.42368448 0.073419929 4283650899
59.610077 0.40572044 0.054012276 4283848278
59.702801 0.38706836 0.034963161 4283979864
59.782173 0.36706567 0.018801739 4284243036
59.867393 0.34701008 0.0013999834 4284177243
60.073002 0.33401173 -0.041639082 4283914071
60.240341 0.31778017 -0.076431967 4283716692
60.472481 0.30432966 -0.12498762 4283782485
60.724697 0.29065424 -0.17778745 4283716692
62.272251 0.34186801 -0.50590104 4283190348
64.746071 0.42898667 -1.030555 4282729797
65.794907 0.43662289 -1.2522978 4282137660
65.333641 1.6161878 -1.2188647 4283914071
63.94466 1.3961159 -0.91792953 4283716692
61.933216 1.1049953 -0.48371774 4283256141
61.070591 0.96694738 -0.29695719 4283256141
60.638985 0.88604289 -0.20284915 4283716692
60.358524 0.8252694 -0.14138655 4283519313
60.221947 0.78150159 -0.11149953 4282992969
59.981003 0.72758752 -0.058833107 4282795590
59.834732 0.68559664 -0.026424548 4282795590
59.738781 0.6498028 -0.0048466921 4282927176
59.635017 0.61314988 0.018077483 4283453520
59.521652 0.57573509 0.042856988 4283650899
59.457462 0.54449099 0.05741613 4283124555
59.448895 0.51838791 0.059816066 4282927176
59.451427 0.49352887 0.059909116 4283124555
59.419678 0.46572831 0.067391314 4283124555
59.452888 0.44350389 0.060869563 4283256141
59.520477 0.42390153 0.046968125 4283519313
59.6353 0.40742901 0.022853047 4283848278
59.739487 0.38952544 0.0010451756 4283979864
59.802784 0.36830783 -0.011886788 4283979864
59.925777 0.35074228 -0.037683416 4284045657
60.140759 0.33813426 -0.083371617 4283979864
60.326035 0.32281911 -0.12252634 4283848278
60.565201 0.30950469 -0.1732977 4283782485
60.833157 0.29643679 -0.23023941 4283650899
62.658176 0.36147162 -0.62279844 4283190348
65.503143 0.46528962 -1.2348144 4282598211
64.8041 1.5461868 -1.1459069 4283914071
63.25124 1.3064198 -0.80518574 4283321934
61.56461 1.0581948 -0.43591174 4283256141
60.991264 0.95689845 -0.30966708 4283585106
60.505482 0.86944932 -0.20262261 4283519313
60.230164 0.80944252 -0.14158206 4283124555
60.10659 0.76821339 -0.11376385 4282861383
59.998341 0.72943038 -0.089305162 4282795590
59.853622 0.68747914 -0.056848031 4282729797
59.752121 0.65100634 -0.033803444 4282795590
59.611759 0.61070514 -0.0025335797 4282992969
59.482391 0.57205528 0.026198469 4283124555
59.454185 0.54421693 0.033014309 4283058762
59.464481 0.51993585 0.031342518 4283124555
59.458405 0.49419117 0.033268619 4283190348
59.438831 0.46736267 0.038153213 4283256141
59.47485 0.44524181 0.030883046 4283321934
59.553459 0.42639109 0.014340724 4283585106
59.670563 0.40993166 -0.010645134 4283848278
59.773518 0.39176914 -0.032522697 4284045657
59.852085 0.37158942 -0.048961047 4283914071
59.987675 0.35466149 -0.077903979 4283848278
60.223591 0.34325546 -0.12879567 4283914071
60.419235 0.32829893 -0.17078111 4283848278
60.675049 0.31564781 -0.225913 4283585106
60.996353 0.3051461 -0.29531783 4283387727
63.265709 0.39242715 -0.79043025 4283058762
63.452625 1.3679314 -0.88784301 4283387727
61.776455 1.1157889 -0.51555139 4283124555
61.289322 1.0231251 -0.40656307 4283058762
60.948139 0.95127058 -0.3299346 4283190348
60.57362 0.87740624 -0.24599901 4282992969
60.307682 0.81833309 -0.18619846 4283058762
60.132725 0.77103084 -0.14664763 4283058762
60.015537 0.73119885 -0.11988684 4282729797
59.89286 0.69155157 -0.091893598 4282598211
59.783985 0.65416753 -0.066933416 4282532418
59.645847 0.61412215 -0.035683934 4282729797
59.531738 0.57694578 -0.0099147158 4282927176
